-0.759614 0.590949 0.271599
-0.645424 0.707079 0.288907
0.00415015 -0.00220767 -0.999989
0.256814 0.0379644 -0.965715
-0.352993 -0.0971514 -0.930568
-0.137958 0.319465 0.937502
-0.881594 0.0454185 -0.469818
0.131819 -0.229263 -0.964397
-0.67529 -0.63416 0.376595
0.556094 -0.118471 -0.822632
0.364022 -0.431227 0.825549
0.0323431 0.00915299 0.999435
0.11241 0.0522569 0.992287
0.276837 0.152737 0.9487
0.68715 0.319978 0.652257
0.349788 0.224884 0.909437
0.341185 0.270449 0.90025
0.537843 0.4995 0.679135
0.755951 0.585019 0.293753
0.32252 0.337846 0.884218
0.30397 0.0674879 0.950288
0.624485 0.229571 0.746536
0.419717 0.0928053 0.902898
0.265209 0.052133 0.962781
0.819676 0.313843 0.479201
0.944747 0.322149 0.0606094
0.975783 0.204089 0.0787046
0.244089 0.341866 0.907496
0.135318 0.24762 0.959361
0.216609 0.512298 0.831042
0.503298 0.235051 0.83153
0.537606 0.312141 0.783293
0.718526 0.433269 0.544057
0.65741 0.256568 0.708509
0.0862502 0.398045 0.913302
0.038519 0.547256 0.836078
-0.0384294 0.457123 0.888573
0.0632735 0.901578 0.427963
-0.00167472 -0.0175627 0.999844
-0.0125505 -0.431405 0.902071
0.0235913 -0.910621 0.412569
0.0300854 -0.120751 0.992227
0.201648 -0.42557 0.882173
0.441261 -0.79169 0.422512
0.0377226 -0.0384353 0.998549
0.0545571 -0.0624986 0.996553
0.0640397 -0.0414 0.997088
-0.390613 0.240854 0.888488
0.476538 0.03412 0.878491
0.493679 0.013319 0.869542
0.723191 0.0142574 0.690501
0.284557 0.00344472 0.958653
0.00522787 0.00287205 0.999982
0.905329 -0.000517734 0.42471
0.727187 0.0649552 0.68336
0.847271 0.15865 0.506915
0.976195 0.0497113 0.21112
0.969483 0.110501 0.218843
0.651848 0.154869 0.742368
0.356431 -0.330974 0.873735
0.648825 -0.476814 0.593022
0.708448 -0.331451 0.62309
0.639001 0.659481 0.395932
0.559812 0.763819 0.321234
0.768433 0.526441 0.363829
0.820272 0.571918 0.0079636
0.726781 0.604852 -0.325489
0.680236 0.520382 0.516219
0.655862 0.570559 0.494274
0.715003 0.670789 0.197011
0.776931 0.629584 0.00156644
0.384035 0.552337 0.739893
0.928696 0.154484 -0.337132
-0.5199 -0.773035 0.363484
0.129499 0.0903165 0.987458
-0.103636 -0.0763438 0.991681
-0.12736 -0.111062 0.985619
-0.2891 -0.251447 0.923686
-0.473221 -0.383799 0.792944
-0.613187 -0.533621 0.582452
-0.545071 -0.615755 0.568984
-0.413257 -0.571524 0.708928
-0.309451 -0.683201 0.66142
-0.138367 -0.374961 0.916656
-0.00952904 -0.10869 0.99403
-0.324132 -0.382809 0.865099
-0.602919 -0.716858 0.350148
-0.520611 -0.843516 0.132076
-0.36501 -0.876985 0.312513
-0.160465 -0.970756 0.178559
0.0489449 -0.996128 -0.0730327
0.25842 -0.94729 0.189368
-0.157076 -0.195855 0.967971
-0.062831 -0.133941 0.988996
-0.520812 -0.831644 -0.192671
-0.060217 -0.0855717 0.994511
0.0888607 0.163424 0.982546
0.238138 0.373141 0.896692
0.244055 0.475245 0.845328
0.278977 0.600885 0.749072
0.306715 0.835682 0.45559
0.36888 0.794043 0.483139
0.465521 0.812174 0.351658
0.275645 0.956167 0.098817
0.192592 0.376462 0.906192
0.113825 0.327265 0.938052
0.0576211 0.121657 0.990898
0.074882 0.226097 0.971222
0.0375445 0.176848 0.983522
0.0578694 0.387848 0.919905
0.101225 0.63298 0.767522
0.107417 0.796884 0.594507
0.153443 0.921387 0.357073
0.113359 0.979958 0.163804
0.119461 0.969685 -0.213165
0.235738 0.905377 0.353158
0.0446113 0.750558 0.659297
-0.0145833 0.870687 0.491622
-0.0455096 0.734991 0.676548
-0.170435 0.818811 0.548179
-0.234019 0.723006 0.649998
0.00522122 0.579415 0.815016
0.00583398 0.311359 0.950274
0.0368556 0.9102 -0.412525
-0.0630891 0.95896 -0.276433
0.223947 0.766071 0.602481
-0.0470636 0.982185 0.181929
0.154264 0.637706 0.754674
0.170433 0.525439 0.833587
-0.102544 0.994009 0.0378286
-0.199734 0.975575 0.091427
-0.265529 0.941895 -0.205736
0.00106377 -0.00278722 0.999996
-0.0473567 -0.145566 0.988214
-0.0629485 -0.273382 0.959844
-0.0564124 -0.374848 0.925368
-0.130644 -0.500365 0.855901
-0.217547 -0.574255 0.789243
-0.20366 -0.449726 0.869637
-0.224096 -0.759073 0.61122
-0.162538 -0.863512 0.477419
-0.0635748 -0.772669 0.631617
0.0279373 -0.727389 0.685657
0.177883 -0.826835 0.533574
-0.101783 -0.24407 0.964401
-0.00835847 -0.0205268 0.999754
0.268478 -0.665534 0.696408
0.332049 -0.623524 0.707786
0.513728 -0.641888 0.569266
0.0185114 0.0900615 0.995764
-0.0186639 -0.160089 0.986926
0.0409235 -0.326646 0.94426
-0.0242449 0.258671 0.965661
-0.0609429 0.465785 0.882797
-0.146114 0.626805 0.765354
-0.181619 0.508393 0.841755
-0.201507 0.567276 0.798494
-0.310089 0.59751 0.739477
-0.489197 0.791589 0.366159
-0.0502721 0.204194 0.977639
0.01847 -0.0228149 0.999569
-0.203985 0.310549 0.928412
-0.322747 0.352044 0.878578
-0.509126 0.529902 0.678229
-0.0403791 0.146151 0.988438
0.0161012 -0.118855 0.992781
0.0905541 -0.321824 0.942459
0.159651 -0.453754 0.876709
0.0993372 -0.241895 0.965204
0.106768 -0.209331 0.971999
0.235934 -0.366033 0.900197
0.158976 -0.214795 0.963634
0.224426 -0.266738 0.937275
0.00432329 0.0158062 0.999866
-0.13066 0.140848 0.981371
-0.093925 0.0796203 0.99239
-0.139631 0.115702 0.983421
-0.152773 0.10843 0.982295
0.124009 -0.071035 0.989735
-0.375566 0.261936 0.889011
-0.627121 0.458817 0.62945
-0.242634 0.120278 0.962633
-0.537918 0.227493 0.811721
-0.502458 0.270217 0.821291
0.0857867 -0.11289 0.989897
-0.451278 0.416916 0.789005
-0.63772 0.533826 0.555287
-0.450896 0.892362 -0.0195819
-0.457494 0.786064 -0.415696
0.202383 -0.0950935 0.974679
-0.0283577 0.102512 0.994327
-0.021106 0.831876 -0.55456
-0.101521 0.866293 -0.489112
-0.156747 0.776132 -0.610777
-0.0998756 0.475039 -0.874279
-0.0206122 0.615605 -0.787786
-0.0301641 0.402991 -0.914707
0.234451 -0.213923 0.948298
0.414588 -0.305852 0.857071
0.543524 -0.378994 0.748963
0.512966 -0.430828 0.742464
0.439525 -0.474464 0.762693
0.594589 -0.562263 0.574738
0.707996 -0.390834 0.58821
0.787279 -0.538389 0.300548
0.831326 -0.421164 0.362655
0.84881 -0.293487 0.439759
0.947513 -0.188441 0.258283
0.924353 -0.0465687 0.378685
0.968597 -0.24238 -0.0554235
0.946296 -0.115873 -0.301824
0.906697 -0.381553 -0.179769
0.819578 -0.106037 -0.56307
0.697083 -0.227251 0.680023
0.635839 -0.108699 0.764129
0.759113 -0.0542364 0.648695
0.598778 0.0011987 0.800914
0.578377 0.0626463 0.813361
0.386962 0.102287 0.916405
0.740816 0.136647 0.657662
0.880622 0.116285 0.459328
0.893385 0.273351 0.35657
0.838575 0.358326 0.410359
0.332166 -0.0163925 0.943078
0.188333 -0.0591408 0.980323
0.0636569 0.0103034 0.997919
-0.259763 -0.0235111 0.965386
-0.49744 -0.124036 0.858585
0.0298872 0.0126957 0.999473
-0.0915313 -0.00298727 0.995798
0.401925 -0.0750615 0.912591
0.235843 -0.0753823 0.968863
-0.0560353 0.0249296 0.998118
-0.235198 -0.0490156 0.970711
-0.352289 -0.142649 0.924956
-0.732983 -0.242216 0.635663
-0.874494 -0.422398 0.238411
0.685994 0.325341 0.650819
0.473039 0.200863 0.857839
0.567888 -0.307329 0.763579
0.40816 -0.194038 0.892051
0.584049 -0.248551 0.772729
0.85879 -0.511983 0.0187699
0.775628 -0.627155 -0.0712578
0.598988 -0.796876 -0.0787605
0.509525 -0.68921 -0.515145
0.358107 -0.484521 -0.798122
0.121043 -0.147303 -0.981657
0.345207 -0.715671 -0.607163
0.155971 -0.524267 -0.837148
0.0637858 -0.154658 -0.985907
0.0804521 -0.374143 -0.923875
0.244277 -0.900758 -0.359115
0.403001 -0.336621 -0.851044
-0.406322 -0.0533473 0.912171
-0.704338 -0.0961504 0.703322
-0.863662 -0.042505 0.502276
-0.995969 -0.0896216 -0.00360877
-0.903303 -0.151548 -0.401344
-0.776919 -0.177764 0.603985
-0.898369 -0.254748 0.357823
-0.936735 -0.327197 -0.124375
-0.906914 -0.152401 0.392787
-0.752466 -0.249134 -0.609695
-0.550722 -0.256647 -0.794253
-0.315416 0.106071 0.943007
0.8055 -0.38794 -0.447964
0.707828 -0.409019 -0.575919
0.692403 -0.254421 -0.675165
0.479973 -0.338749 -0.809243
0.143307 -0.0751866 -0.986818
-0.229948 0.148795 -0.961761
-0.539339 0.415009 -0.732721
-0.295486 0.134619 -0.945815
0.215987 -0.136299 0.966836
-0.158355 -0.0792044 -0.9842
0.598728 0.172472 0.782162
0.221745 0.0762014 0.972123
-0.0738965 -0.0709105 0.994742
-0.274249 -0.13254 0.952481
0.17105 -0.180271 -0.96863
-0.0242463 0.03345 -0.999146
-0.196445 0.277965 -0.94029
-0.404749 0.430575 -0.806712
-0.587476 0.668384 -0.456218
-0.437129 0.409354 -0.800842
-0.306239 0.230966 -0.923511
-0.0480879 0.0262414 -0.998498
-0.280352 0.433656 -0.856356
-0.214032 0.376895 -0.901188
-0.186166 0.480556 -0.856976
-0.281403 0.710233 -0.645276
-0.370825 0.817332 -0.440972
-0.0461144 0.109593 -0.992906
0.0649233 -0.12252 -0.99034
-0.655995 0.746868 -0.108899
-0.727279 0.685113 0.041051
-0.771675 0.609881 -0.180452
-0.790161 0.0310017 0.612115
-0.282484 0.872449 -0.398794
-0.529479 0.181973 0.828576
-0.773817 0.267604 0.574104
-0.729664 0.20206 0.65327
-0.898557 0.257177 0.355605
-0.961318 0.275268 0.00980971
-0.931668 0.337408 -0.134727
-0.902432 0.427164 0.0561102
-0.908807 0.261658 -0.324969
-0.730921 0.210928 -0.649048
-0.38632 0.1267 -0.913621
-0.843737 0.139949 -0.518192
-0.163544 0.0392323 -0.985756
-0.854715 0.41307 -0.314382
-0.771379 0.432091 -0.467196
-0.693246 0.342122 -0.634321
-0.845404 0.479538 0.235236
-0.832698 0.550837 0.0564975
-0.423794 0.0359791 -0.905044
-0.274644 0.00192446 -0.961544
-0.296014 -0.0522201 -0.953755
-0.9408 0.13118 -0.31255
-0.991373 0.118254 0.056539
-0.99051 0.0319812 -0.133669
-0.94506 -0.0319618 -0.325331
-0.838071 0.380098 0.391359
-0.631642 -0.138484 -0.762791
-0.658308 0.453681 -0.600669
-0.780412 0.533386 -0.326276
-0.700425 0.543137 -0.463041
-0.678009 0.117634 0.72558
-0.780798 -0.0214854 -0.624414
-0.675574 0.0363838 -0.736394
-0.778622 0.0878951 -0.621306
-0.660724 0.243926 -0.70989
-0.967795 0.199152 0.153988
-0.481791 0.33414 -0.810079
-0.877059 -0.102598 -0.469298
-0.595357 0.558567 -0.57754
-0.00892889 -0.153653 0.988085
0.475607 -0.194622 -0.857858
0.315536 -0.10705 -0.942856
0.297321 -0.0386439 -0.953995
0.338395 -0.0095288 -0.940956
0.221741 -0.0992961 -0.970037
0.0743731 -0.0575494 -0.995569
-0.0469502 0.00918395 -0.998855
-0.0991434 0.0630851 -0.993071
-0.35524 0.192762 -0.914684
-0.00846058 0.00884466 -0.999925
-0.0778433 0.0627815 -0.994987
0.234829 -0.175806 -0.956006
0.365081 -0.190111 -0.911358
-0.51997 0.2387 -0.820155
0.113904 -0.920542 -0.373668
0.0239853 -0.706644 -0.707163
-0.395496 0.389342 0.831863
-0.459287 0.513302 0.724966
-0.575922 0.628547 0.522726
-0.537808 0.748248 0.388442
-0.641116 0.63605 0.429431
-0.505965 0.622831 0.596725
-0.221626 0.0667507 0.972844
-0.446121 0.0925946 0.89017
0.551359 0.0692884 -0.831386
0.449768 0.145605 -0.881197
0.614829 0.291703 -0.732731
0.7784 0.443243 -0.444555
0.400069 0.273308 -0.874784
0.357706 0.278458 -0.891352
0.0911682 0.0632242 -0.993826
-0.235678 -0.183686 -0.954314
-0.493833 -0.362758 -0.790276
0.493454 0.48818 -0.719849
0.0735212 0.0333455 -0.996736
0.151319 0.0589966 -0.986723
0.0319054 0.0484738 0.998315
0.637317 0.398146 0.659777
0.641804 0.538326 0.546162
0.728613 0.633146 0.261246
0.835309 0.529001 0.149722
0.848205 0.507799 -0.150627
0.731858 0.57879 -0.359702
0.891903 0.37014 -0.259818
0.956982 0.273336 -0.0973313
0.712634 0.688856 0.13278
0.680626 0.717727 -0.147025
-0.764571 -0.120985 -0.633083
0.286535 0.698057 0.656211
-0.390552 0.0118865 0.920504
0.875803 -0.0259671 -0.48197
0.802422 0.0929479 -0.589474
-0.632403 -0.363288 -0.68417
-0.367898 -0.214206 -0.904857
-0.841505 -0.32363 0.432589
-0.7669 -0.366253 0.526995
-0.642605 -0.378932 0.665935
-0.815502 -0.465353 0.344097
-0.8312 -0.555969 -0.0019577
-0.878185 -0.478173 -0.0118577
-0.92822 -0.349727 0.126881
-0.900277 -0.42849 -0.0767951
-0.565841 -0.433098 0.701606
0.536008 0.559009 0.632617
0.384653 0.42409 0.819872
0.325743 0.300755 0.896347
0.152623 0.138215 0.978572
0.0416197 0.0531455 0.997719
0.0776849 0.0525192 0.995594
-0.185201 -0.133985 0.973524
0.000848557 -2.70188e-05 1
-0.255415 -0.243953 0.935548
0.298751 0.363586 0.882357
0.133179 0.161136 0.977905
0.373148 0.302696 0.877004
0.339152 0.207336 0.917599
0.306103 0.16562 0.937481
-0.380363 -0.30349 0.873623
-0.471999 -0.30727 0.826318
-0.510815 -0.268959 0.816535
0.13116 0.113613 0.98483
0.0287091 0.0235965 0.999309
-0.117286 -0.0848872 0.989464
-0.319533 -0.178385 0.930633
0.186482 0.110686 0.976203
-0.0853535 -0.0326125 0.995817
-0.0817336 -0.0313799 0.99616
-0.236433 -0.0923192 0.967252
-0.452907 -0.188379 0.871429
-0.554438 -0.196166 0.808775
-0.680219 -0.262135 0.684534
-0.612205 -0.162746 0.77377
-0.434756 -0.103359 0.894597
-0.157645 -0.0628969 0.985491
0.0618931 0.0201481 0.997879
0.201995 0.0819714 0.97595
0.342127 0.129086 0.930745
0.382989 0.126046 0.915113
0.247408 0.0877623 0.964929
0.200949 0.0561176 0.977993
0.120215 0.035747 0.992104
-0.0323741 -0.00137101 0.999475
-0.163085 -0.0557203 0.985037
0.0609824 0.0100998 0.998088
0.491918 -0.225342 -0.840974
0.666004 -0.274833 -0.693473
0.821083 -0.329216 -0.466305
0.646843 -0.318582 -0.692892
0.662582 -0.36725 -0.652773
0.771157 -0.471955 -0.427288
0.455433 0.0197814 -0.89005
-0.80737 -0.179704 -0.562015
-0.91845 -0.244351 -0.311034
0.484388 -0.440299 0.75598
0.585139 -0.480098 0.653543
0.643878 -0.573549 0.506422
0.502843 -0.394657 0.769022
0.539365 -0.390446 0.746081
0.695341 -0.440033 0.568218
0.364232 -0.246002 0.89823
0.786647 -0.533575 0.310618
0.365472 -0.293695 0.883274
0.69934 -0.522559 0.487704
0.75961 -0.557459 0.335011
0.78521 -0.592039 0.18148
0.7164 -0.512747 0.47314
0.679538 -0.383282 0.625558
0.560684 -0.283676 0.777921
0.770794 -0.614548 0.167954
0.414184 -0.215592 0.884291
0.304222 -0.187736 0.933919
0.148731 -0.137138 0.979322
0.0286563 -0.018661 0.999415
-0.136219 0.113087 0.984203
0.138571 -0.0970851 0.985582
0.230777 -0.172566 0.957582
0.314053 -0.193018 0.929578
0.2803 -0.156487 0.947071
0.204416 -0.101706 0.973586
0.198004 -0.0720102 0.977552
0.108146 -0.0517458 0.992787
0.0212248 -0.00559324 0.999759
-0.0181125 0.0177317 0.999679
-0.255289 0.151188 0.954971
-0.113341 0.039981 0.992751
-0.172774 0.0500173 0.983691
-0.269767 0.151291 0.950966
-0.472079 0.283912 0.834587
-0.462065 0.374326 0.803975
-0.29581 0.272882 0.915441
-0.578629 0.423281 0.697153
-0.520617 0.470827 0.712236
-0.384775 0.43674 0.813146
-0.294689 0.261594 0.91909
-0.193599 0.232145 0.95322
-0.143633 0.145473 0.97888
-0.551041 0.594584 0.585511
-0.490791 0.654971 0.574576
-0.430333 0.565343 0.703705
-0.343554 0.491426 0.800295
-0.601451 0.690597 0.401662
-0.701908 0.632382 0.327747
-0.636247 0.734791 0.235098
-0.583791 0.811164 0.034644
-0.626789 0.75396 -0.196673
-0.55791 0.786682 0.264326
-0.787266 0.588199 0.185025
-0.770635 0.632934 -0.0742711
-0.506046 0.752837 0.420896
-0.393016 0.844228 0.364441
-0.361675 0.916895 0.168805
-0.349419 0.76609 0.539455
-0.255652 0.954266 0.154982
-0.398153 0.144952 0.905794
-0.327248 0.0537785 0.943407
-0.365753 0.627221 0.687617
-0.280776 0.544166 0.7906
-0.643608 0.50993 0.570736
-0.700685 0.472859 0.53427
-0.64793 0.370569 0.665481
-0.619901 0.307082 0.722096
-0.545097 0.225124 0.807582
-0.509054 0.173379 0.843092
-0.411791 0.141399 0.900241
-0.230817 0.432471 0.871604
-0.241635 0.39646 0.885682
-0.192735 0.270496 0.943231
-0.156183 0.300704 0.940842
-0.11784 0.244217 0.962534
-0.0984641 0.168866 0.980709
-0.0286866 0.0493769 0.998368
0.0736216 -0.0700927 0.99482
-0.0476725 0.0776731 0.995838
-0.131799 0.332656 0.933793
-0.10553 0.286127 0.952363
-0.210904 0.491863 0.844743
-0.213838 0.595643 0.774263
-0.149984 0.539528 0.828501
-0.128446 0.658325 0.741694
-0.165463 0.774541 0.610498
-0.233646 0.804251 0.546433
-0.261742 0.720657 0.641985
-0.10544 0.379098 0.91933
-0.0605456 0.298403 0.952518
-0.0567909 0.342404 0.937835
-0.0592872 0.521238 0.851349
-0.0280746 0.573169 0.818956
0.0137471 0.453252 0.891277
-0.0453046 0.711558 0.701165
-0.031194 0.119281 0.99237
-0.0164388 0.021989 0.999623
-0.0174509 0.0617245 0.997941
0.0497853 -0.146257 0.987993
0.108175 -0.268241 0.957259
-0.0231375 0.2452 0.969196
-0.028094 0.284662 0.958216
-0.00236606 0.0674713 0.997718
-0.00791875 0.150294 0.98861
0.00783595 -0.0835219 0.996475
0.00755248 -0.102344 0.99472
-0.0127336 -0.26723 0.963549
-0.0289142 -0.253594 0.966879
-0.00786029 -0.42654 0.904435
-0.028452 -0.590264 0.806709
-0.0695356 -0.592533 0.802539
0.0297688 -0.415362 0.909169
0.0239847 -0.307838 0.951137
0.0450024 -0.570785 0.819865
0.0369173 -0.44303 0.895747
0.0612343 -0.716289 0.695112
0.0958069 -0.558296 0.824092
0.127201 -0.527571 0.839934
0.158674 -0.711263 0.684783
0.127719 -0.448217 0.884754
0.109061 -0.728336 0.676485
0.0400863 -0.104795 0.993686
0.0377654 -0.180358 0.982876
0.0172697 -0.119385 0.992698
0.0404138 -0.263428 0.963832
0.0671397 -0.193337 0.978832
0.106625 -0.321734 0.940807
0.149161 -0.420662 0.894871
0.163238 -0.404039 0.900059
-0.0305109 0.125132 0.991671
0.184017 -0.759696 0.623699
0.240144 -0.70576 0.666509
0.207664 -0.533414 0.819967
0.233342 -0.619143 0.749809
0.276235 -0.690142 0.668878
0.269697 -0.760621 0.590524
0.312442 -0.826101 0.468974
0.358634 -0.838506 0.410231
0.294133 -0.697503 0.653434
0.297908 -0.639068 0.709114
0.343743 -0.779402 0.523806
0.388761 -0.783308 0.485071
0.386191 -0.728195 0.566206
0.448157 -0.733436 0.511104
0.407278 -0.841987 0.353813
0.471586 -0.875754 0.103259
0.420534 -0.885124 0.199264
0.416434 -0.909123 0.00882348
0.391386 -0.912614 -0.118119
0.348255 -0.916863 -0.195142
0.426361 -0.889179 -0.166063
0.296109 -0.877328 0.377644
0.310628 -0.924604 0.220493
0.306441 -0.945633 0.108956
0.294568 -0.954083 -0.0543608
0.240645 -0.959025 0.149538
0.34726 -0.923979 0.160231
0.374 -0.927018 0.027594
0.271789 -0.875785 0.398913
0.382289 -0.887139 0.258534
0.24728 -0.946718 -0.206343
0.219235 -0.954785 -0.200802
0.245196 -0.90601 -0.345
0.204253 -0.801821 -0.561573
0.242585 -0.848507 -0.470307
0.317543 -0.802409 -0.505278
0.172628 -0.634845 -0.753108
0.197643 -0.550657 -0.810996
0.11519 -0.490627 -0.863723
0.0482113 -0.215731 -0.975262
0.224036 -0.973674 -0.0420359
0.180431 -0.980148 0.082183
0.144391 -0.979642 0.139475
0.10803 -0.946467 0.304187
0.177255 -0.955781 -0.234656
0.155791 -0.956537 -0.246508
0.169842 -0.90475 -0.390615
0.128516 -0.786118 -0.604568
0.107175 -0.949802 -0.293921
0.0766275 -0.889116 -0.451222
0.106259 -0.986246 -0.126598
0.082171 -0.801551 -0.592253
0.0430355 -0.906114 -0.42084
-0.00622435 -0.957439 -0.288568
0.00342815 -0.835048 -0.550166
-0.0468203 -0.978051 -0.203036
-0.0570111 -0.997744 -0.0354579
-0.0540228 -0.93024 -0.362953
0.0559309 -0.994355 -0.0901689
0.0415795 -0.997848 0.0506958
0.0274062 -0.992445 -0.119587
0.0180092 -0.982501 0.185385
-0.0239958 -0.98968 0.141274
0.0471812 -0.720536 -0.69181
0.0147059 -0.733133 -0.679927
-0.00684072 -0.734471 -0.678606
0.0316802 -0.614589 -0.788211
-0.0215953 -0.629174 -0.776965
-0.0402409 -0.587759 -0.808034
0.0424612 -0.483852 -0.874119
0.0618768 -0.502139 -0.86257
0.0958995 -0.625941 -0.773951
0.0272367 -0.345172 -0.938144
0.0216997 -0.113845 -0.993262
0.00698252 -0.179553 -0.983724
0.00119089 -0.24934 -0.968415
-0.00769856 0.126569 -0.991928
-0.000711949 -0.493644 -0.869664
-0.0685837 -0.845073 -0.530234
-0.089936 -0.795887 -0.598728
-0.118932 -0.807822 -0.577304
-0.181849 -0.751764 -0.633863
-0.145745 -0.589601 -0.794437
0.213538 -0.61755 0.75699
0.173183 -0.535601 0.826522
0.342737 -0.788777 -0.510257
0.348786 -0.644761 0.68017
0.240684 -0.538717 0.807376
0.232907 -0.457334 0.858254
0.158316 -0.361284 0.918918
0.117378 -0.255937 0.959541
0.253685 -0.472634 0.843955
0.306774 -0.564101 0.766603
0.0644351 -0.12602 0.989933
0.343639 -0.575524 0.742081
0.402885 -0.650767 0.643573
0.329833 -0.526505 0.783583
0.258467 -0.425958 0.867038
0.212332 -0.344796 0.914347
0.233621 -0.389271 0.891005
0.167184 -0.299318 0.939393
0.117823 -0.189011 0.974881
-0.0153038 0.0500097 0.998631
-0.749835 0.634322 0.188104
0.0653827 -0.318636 0.945619
0.0754683 -0.41123 0.908402
0.448289 -0.668656 0.593241
0.484898 -0.650474 0.5846
0.546791 -0.710897 0.442318
0.578937 -0.776575 0.248523
0.552839 -0.832244 0.0416917
0.598817 -0.787246 -0.14718
0.55186 -0.814651 -0.178311
0.532262 -0.82083 0.207207
0.466199 -0.740856 0.483519
0.478197 -0.79906 0.364458
0.482761 -0.848775 0.215692
0.1449 -0.350694 -0.925212
0.246665 -0.480371 -0.841665
0.0545259 -0.123759 -0.990813
0.232323 -0.831636 0.504389
0.25331 -0.768642 0.587387
0.233098 -0.92106 0.311953
0.212385 -0.9153 0.342227
0.173402 -0.937147 0.3028
0.161085 -0.900513 0.403891
0.19946 -0.867002 0.456643
0.209505 -0.784816 0.583242
0.450756 -0.859498 0.241003
-0.0983459 -0.435655 -0.894725
-0.0682593 -0.296273 -0.952661
-0.0202327 -0.146879 -0.988948
-0.00922545 0.0109014 -0.999898
0.0662088 0.163001 -0.984402
-0.0066819 0.0566256 -0.998373
0.0166998 0.113897 -0.993352
0.0331873 0.301535 -0.952877
-0.0777509 -0.524427 -0.847898
-0.0728484 -0.421147 -0.904062
-0.0502743 -0.261335 -0.963938
-0.00854176 -0.267593 -0.963494
-0.0267315 -0.132964 -0.99076
-0.194962 0.870761 0.451403
-0.135988 0.935451 0.326249
-0.142101 0.98074 0.134001
-0.0152281 0.999854 0.00773541
0.118188 -0.823866 0.554325
0.0783269 -0.769146 0.634255
0.0605809 -0.825638 0.560939
0.0722718 -0.897645 0.434754
0.0457154 -0.890326 0.453024
-0.0115828 -0.860146 0.509917
-0.00263387 -0.759037 0.651042
-0.0203428 -0.844264 0.535542
-0.0759646 -0.826844 0.557278
-0.0696635 -0.719536 0.690952
-0.0921799 -0.834355 0.543466
-0.1275 -0.904979 0.405902
-0.112304 -0.947767 0.29854
0.0146902 -0.935391 0.35331
0.0159315 -0.0582376 -0.998176
-0.0719414 -0.225342 -0.97162
-0.00020677 -0.0290627 -0.999578
-0.108622 -0.370042 -0.922643
-0.153088 -0.393422 -0.906522
-0.172159 -0.520425 -0.836372
-0.234113 -0.484313 -0.84299
-0.290336 -0.661031 -0.691913
-0.393606 -0.728453 -0.560741
-0.446692 -0.844265 -0.296112
-0.405917 -0.633848 -0.658383
-0.272606 -0.424651 -0.863341
-0.517387 -0.697395 -0.495934
-0.526842 -0.632172 -0.568151
-0.651552 -0.676188 -0.343875
-0.221965 -0.395153 -0.891395
-0.680595 -0.61463 -0.398773
-0.769731 -0.623834 -0.135445
-0.583186 -0.489541 -0.648262
-0.403382 -0.393965 -0.825878
-0.412339 -0.454255 -0.789702
-0.267426 -0.749446 -0.605652
-0.561404 -0.794696 -0.230832
-0.564822 -0.822907 0.061637
-0.582298 -0.750095 -0.313507
-0.26438 -0.357366 -0.895764
-0.103573 -0.123995 -0.986863
0.061085 0.0724026 -0.995503
-0.0426942 -0.0461605 -0.998021
0.224491 0.305418 -0.925377
-0.28746 -0.847232 -0.446727
-0.369116 -0.880258 -0.298159
-0.433745 -0.896957 -0.085632
0.0149834 0.037219 -0.999195
-0.121182 -0.202964 -0.971659
-0.0305169 -0.0865615 -0.995779
0.00920067 0.756542 0.653881
0.0635998 0.659702 0.748832
0.0729977 0.840449 0.536951
0.0266316 0.902977 0.428862
0.147212 0.874033 0.463028
0.223455 0.926216 0.303632
0.201954 0.978604 0.0393584
0.0516741 0.986574 0.154922
0.232976 0.944587 -0.231254
0.320293 0.831336 -0.454195
0.0970664 0.655609 0.748836
0.183409 0.746336 0.6398
0.218021 0.7357 0.641258
0.129218 0.531175 0.83735
0.0309903 0.516551 0.855695
0.0401286 0.398518 0.916282
0.0363018 0.386508 0.921571
0.281636 0.811886 0.511392
0.325874 0.861496 0.389399
0.310311 0.713317 0.628399
0.376851 0.855344 0.355485
0.503763 0.724461 0.470509
0.420999 0.887765 0.186098
0.489716 0.871847 -0.00779253
0.375119 0.926526 0.0288977
0.319638 0.944809 -0.0718887
0.512693 0.829933 -0.219902
0.334389 0.639147 0.692586
0.23869 0.520232 0.819991
0.367996 0.725287 0.58184
0.162862 0.52351 0.836309
0.103849 0.402433 0.90954
0.0778819 0.260292 0.962384
0.180402 0.526333 0.83092
0.162117 0.398984 0.902513
0.107358 0.267533 0.957549
0.0741635 0.163568 0.983741
0.214945 0.64127 0.736594
0.0370499 0.276045 0.96043
0.0339425 0.114654 0.992825
0.00522813 -0.0869823 0.996196
0.0702261 0.40833 0.910129
-0.0413831 -0.181682 0.982486
0.571161 0.723126 -0.388411
0.480998 0.625207 -0.61462
0.574642 0.768996 -0.280059
-0.0591323 -0.276664 0.959146
-0.0932529 -0.368919 0.924772
-0.102806 -0.323345 0.94068
-0.0916892 -0.45035 0.888132
-0.124411 -0.608674 0.783606
-0.0772847 -0.516655 0.852698
-0.0625054 -0.425759 0.902675
-0.0396756 -0.123393 0.991564
-0.103808 -0.663734 0.74073
-0.0242422 -0.048566 0.998526
-0.0471094 -0.158477 0.986238
-0.00139071 0.0121618 0.999925
-0.0121675 -0.0250044 0.999613
-0.0417848 -0.0900315 0.995062
-0.131907 -0.313934 0.940237
-0.122551 -0.202306 0.971624
-0.178849 -0.301011 0.936699
-0.214785 -0.512447 0.831424
-0.312133 -0.582987 0.750132
-0.375765 -0.62002 0.688749
-0.440795 -0.61151 0.657081
0.0229726 0.0514746 0.99841
-0.375269 -0.47981 0.793067
-0.432502 -0.471473 0.768541
-0.0342911 -0.0986831 0.994528
0.040811 -0.00752639 0.999139
-0.0300729 -0.062208 0.99761
-0.179903 -0.259833 0.948747
-0.123108 -0.136797 0.98292
-0.132327 -0.464846 0.875447
-0.185237 -0.59047 0.785514
-0.212381 -0.634442 0.743221
-0.267525 -0.742714 0.613845
-0.354325 -0.809695 0.467811
-0.436581 -0.845557 0.307294
-0.274575 -0.822524 0.498059
-0.297788 -0.902589 0.310896
-0.329308 -0.867416 0.373023
-0.268277 -0.936519 0.225741
-0.216871 -0.925614 0.31017
-0.192534 -0.848527 0.492881
-0.274468 -0.960239 0.0510748
-0.218618 -0.800217 0.558444
-0.293847 -0.954921 -0.0421878
-0.354179 -0.934823 0.0257445
-0.308388 -0.926556 -0.215386
-0.284787 -0.896774 -0.338663
-0.290503 -0.82684 -0.481605
-0.320085 -0.903722 -0.284311
-0.384625 -0.920406 0.0701203
-0.223961 -0.950661 -0.214676
-0.222154 -0.972858 -0.0647626
-0.2646 -0.791037 -0.551586
-0.192696 -0.981252 -0.00370873
-0.145707 -0.984851 -0.0940106
-0.181148 -0.970361 0.159952
-0.153121 -0.950428 0.270632
-0.117929 -0.992977 0.00945151
-0.169962 -0.945925 -0.276293
-0.151279 -0.89425 -0.421225
-0.575336 -0.594083 0.562186
-0.642832 -0.716762 0.270221
-0.59151 -0.54839 0.591087
-0.709829 -0.559927 0.427346
-0.749019 -0.649615 0.130276
-0.77165 -0.607231 0.189281
-0.165775 -0.64406 0.746796
-0.405006 -0.894534 0.189155
-0.457288 -0.881762 0.115683
-0.47408 -0.879505 -0.041471
-0.506144 -0.848279 -0.155695
-0.489754 -0.801161 0.343921
-0.384163 -0.854311 0.350103
-0.391656 -0.784988 0.48
-0.354083 -0.681251 0.640721
-0.236155 -0.691548 -0.682636
0.359006 -0.710665 -0.605037
0.302808 -0.607958 -0.733958
0.318285 -0.553576 -0.769577
0.369011 -0.575912 -0.729491
0.322282 -0.474504 -0.819134
0.243036 -0.288461 -0.926134
0.217359 -0.326079 -0.920015
0.167195 -0.315946 -0.933929
0.0834812 -0.171326 -0.981671
0.0259405 -0.0725309 -0.997029
-0.0491665 0.0820009 -0.995419
0.00676753 -0.0208098 -0.999761
0.00756549 -0.00838677 -0.999936
0.112152 -0.162677 -0.980285
-0.110267 0.124085 -0.986126
0.00706979 -0.0164782 -0.999839
0.00353346 -0.0215222 -0.999762
-0.228141 0.242371 -0.942978
-0.280554 0.272042 -0.920479
-0.31366 0.384071 -0.868393
-0.382284 0.554222 -0.73939
-0.412176 0.515497 -0.751249
-0.530832 0.529628 -0.661598
-0.493624 0.598151 -0.631308
-0.418103 0.703182 -0.575086
-0.53756 0.722726 -0.434392
0.0774634 -0.16475 -0.983289
-0.60827 0.578555 -0.543398
-0.680284 0.658732 -0.321382
-0.663261 -0.740649 -0.107347
0.444941 0.667604 -0.596935
0.356562 0.600428 -0.715786
0.282267 0.447465 -0.848587
0.232205 0.428135 -0.873374
0.198247 0.461935 -0.864473
0.119704 0.268602 -0.955784
0.104327 0.265966 -0.95832
0.206688 0.599333 -0.773356
0.34253 0.706993 -0.618736
-0.269709 -0.479731 0.834935
-0.451063 0.064995 0.890122
-0.6558 0.106307 0.747412
-0.710356 0.202721 0.674016
-0.410765 0.0607739 0.909713
-0.276196 -0.0195878 0.960902
-0.196946 0.00269478 0.980411
-0.263907 -0.0427134 0.963602
-0.138916 -0.0313152 0.989809
-0.740836 0.0796694 0.666944
-0.512079 -0.0183373 0.858743
-0.572585 -0.0132705 0.819738
-0.504806 -0.0641636 0.860845
-0.644827 -0.0946287 0.758448
-0.773451 -0.0867842 0.627887
-0.805196 -0.049933 0.590902
-0.796698 0.011577 0.604267
-0.876856 -0.0236321 0.480171
-0.944305 -0.0058734 0.32902
-0.930235 0.115915 0.348177
-0.988533 0.0291858 0.148161
-0.687413 0.015214 0.726107
-0.936374 -0.080838 0.341569
-0.916116 -0.163576 0.366024
-0.96127 -0.147568 0.232774
-0.993501 -0.0917179 0.0674073
-0.999509 -0.0190937 0.0248633
-0.98934 -0.0349374 -0.141368
-0.967282 0.0179274 -0.253069
-0.960938 -0.0384737 -0.274077
-0.967213 0.0888673 -0.237911
-0.921506 0.150252 -0.358121
-0.921131 -0.00114193 -0.38925
-0.873199 0.0336742 -0.486199
-0.790871 0.0278821 -0.611347
-0.796823 0.0874104 -0.597856
-0.904875 -0.0686289 -0.420109
-0.876761 -0.112963 -0.467471
-0.906253 -0.168696 -0.387617
-0.834282 -0.163074 -0.526669
-0.733486 -0.135993 -0.665961
-0.617769 -0.154724 -0.770988
-0.500706 -0.0393441 -0.864723
-0.267601 -0.0664705 -0.961234
-0.565096 -0.173899 -0.80649
-0.367742 -0.146058 -0.918386
-0.602154 -0.21798 -0.768046
-0.627557 -0.281165 -0.726029
-0.679259 -0.389509 -0.622005
-0.50209 -0.273721 -0.820355
-0.0314477 -0.0230478 -0.99924
0.169825 0.0412748 -0.98461
0.189872 0.0490612 -0.980582
0.0288334 -0.0171636 -0.999437
0.113312 0.0627524 -0.991576
-0.500369 -0.323794 -0.802987
-0.389323 -0.191527 -0.900969
-0.13175 -0.0662522 -0.989066
-0.926189 -0.240895 -0.290077
-0.891767 -0.311405 -0.328295
-0.931676 -0.333806 -0.143363
-0.901881 -0.424708 -0.0789509
-0.832018 -0.517327 -0.200298
-0.825203 -0.367894 -0.428596
-0.820244 -0.43649 -0.369698
-0.806052 -0.288709 -0.51665
-0.874768 0.0946996 -0.475197
-0.717825 -0.254441 -0.648064
-0.975679 -0.094879 -0.197609
-0.954092 -0.153819 -0.256997
-0.982174 -0.146462 -0.117827
-0.981647 -0.18811 -0.0313815
-0.96302 -0.255022 -0.0869297
-0.967342 -0.248427 0.0503356
-0.945263 -0.296854 0.135484
-0.926763 -0.361341 0.102683
-0.957543 -0.221948 0.183984
-0.989742 -0.13977 0.0295935
-0.922885 -0.312861 0.224502
-0.878985 -0.316664 0.356523
-0.88713 -0.248911 0.388644
-0.827395 -0.27953 0.487115
-0.769506 -0.293139 0.567389
-0.763599 -0.213851 0.609249
-0.653356 -0.213059 0.726451
-0.555119 -0.115947 0.82365
-0.773755 -0.162192 0.61237
-0.398354 -0.107879 0.910865
-0.377267 -0.122379 0.917983
-0.468182 -0.187833 0.863438
-0.324542 -0.177505 0.929066
-0.118173 -0.0777823 0.989942
-0.0763662 -0.0561595 0.995497
-0.461161 -0.262479 0.847606
-0.353397 -0.131002 0.926255
-0.592764 -0.248892 0.765953
-0.776476 -0.347237 0.525843
-0.74651 -0.409442 0.52448
-0.850399 -0.357188 0.386314
-0.851821 -0.456319 0.257243
-0.843398 -0.514479 0.15489
-0.738646 -0.441388 0.509489
-0.699847 -0.306216 0.645327
-0.626776 -0.295724 0.720901
-0.593093 -0.308525 0.743675
-0.548359 -0.337459 0.76513
-0.574086 -0.386136 0.722028
-0.441015 -0.3326 0.833597
-0.357055 -0.279035 0.891432
-0.396519 -0.342512 0.851738
-0.336242 -0.339688 0.878381
-0.24241 -0.189967 0.951394
-0.162865 -0.147079 0.975624
-0.0371438 -0.033005 0.998765
0.0219816 0.0165743 0.999621
0.0349312 0.0337307 0.99882
0.16126 0.135143 0.977615
0.240495 0.222076 0.944904
0.40001 0.375474 0.836069
0.177195 0.184842 0.966662
0.118996 0.140131 0.982956
0.253246 0.277749 0.926672
0.374434 0.390063 0.841219
0.482879 0.497271 0.720798
-0.019979 -0.00464531 0.99979
0.367689 0.44403 0.817094
-0.49162 -0.423981 0.760625
-0.533749 -0.526491 0.661754
-0.479428 -0.539962 0.691802
-0.60035 -0.603214 0.525084
-0.580692 -0.677663 0.451188
-0.562759 -0.683097 0.465489
-0.479394 -0.659226 0.579312
-0.381024 -0.677336 0.629314
-0.565594 -0.750427 0.341998
-0.600851 -0.778497 0.18144
-0.492075 -0.80634 0.328144
-0.678564 -0.725903 0.112319
-0.590561 -0.806731 -0.0205737
-0.44251 -0.866567 0.230752
-0.393357 -0.908182 0.143095
-0.246063 -0.968387 0.0409737
-0.284846 -0.901269 0.326461
-0.131804 -0.977582 -0.164197
-0.297058 -0.912389 -0.281607
-0.736296 -0.676321 -0.0213928
-0.581583 -0.771718 -0.257318
-0.651761 -0.699548 -0.292986
-0.443192 -0.757297 0.479668
-0.393829 -0.478416 0.784868
-0.373749 -0.491832 0.786392
-0.334782 -0.502209 0.797313
-0.324806 -0.552819 0.767393
-0.292187 -0.404808 0.866463
-0.214944 -0.319927 0.922738
-0.184199 -0.302031 0.935333
-0.126826 -0.205305 0.970446
-0.245766 -0.295348 0.923238
-0.14964 -0.177526 0.972673
-0.245766 -0.295348 0.923238
-0.0459968 -0.0601887 0.997127
-0.667413 -0.645992 0.370479
-0.709175 -0.667516 0.22692
-0.776362 -0.601832 0.187243
-0.786958 -0.616322 0.0290511
-0.842393 -0.537748 -0.0346569
-0.671079 -0.571193 0.472642
-0.730846 -0.546762 0.408554
-0.713523 -0.64753 -0.267563
-0.722245 -0.567719 -0.395041
-0.646059 -0.533578 -0.545805
-0.553944 -0.541953 -0.632007
-0.472709 -0.583818 -0.660078
-0.458049 -0.887221 0.0550374
-0.0937543 -0.180187 0.979154
0.0880515 0.0589534 0.99437
0.213314 0.141088 0.966743
0.311654 0.185647 0.931883
0.420525 0.229496 0.877776
-0.457821 -0.879142 -0.13232
-0.431111 -0.840688 -0.327698
-0.455022 -0.728452 -0.512165
-0.384158 -0.901117 -0.201025
-0.328725 -0.670456 -0.665153
-0.224192 -0.506654 -0.83249
-0.278744 -0.70647 -0.65054
-0.212321 -0.814048 -0.540598
-0.114538 -0.646336 -0.754407
-0.0822477 -0.377393 -0.922394
-0.0151686 -0.155768 -0.987677
0.0284568 -0.19487 -0.980416
0.0305412 0.126736 -0.991466
-0.318714 -0.941177 -0.112281
-0.222173 -0.954761 -0.197664
-0.21706 -0.896862 -0.385388
-0.231238 -0.238124 0.943306
0.217634 0.18486 0.958364
0.367635 0.258937 0.893194
0.458781 0.325966 0.826599
0.640808 0.405324 0.65198
0.469166 0.340022 0.815027
0.561893 0.464032 0.6848
0.592402 0.588705 0.549988
0.552755 0.615966 0.561291
0.591908 0.713443 0.375026
0.635185 0.770778 0.0494043
0.505516 0.643905 0.574317
0.466548 0.712013 0.524756
0.663112 0.728411 0.172338
0.674202 0.630973 0.383828
0.617312 0.746394 -0.248639
0.673745 0.664924 -0.322403
0.536756 0.640218 -0.549558
0.405886 0.4487 -0.796194
0.41742 0.565577 -0.711254
0.439256 0.702079 -0.560481
0.676033 0.685471 0.270386
-0.0760502 -0.118926 0.989986
-0.00633979 -0.0248066 0.999672
0.0146324 0.0415079 0.999031
0.0802694 0.0915093 0.992564
0.168938 0.237842 0.956499
0.0755717 0.10778 0.991298
0.155288 0.217904 0.963537
-0.156562 -0.120837 0.980248
-0.212387 -0.138348 0.967343
-0.341898 -0.193473 0.919605
-0.246849 -0.120107 0.961582
-0.932122 -0.225064 0.283717
-0.337581 -0.463695 -0.819162
-0.233365 -0.281884 -0.930635
-0.239156 -0.363554 -0.900352
-0.0994945 -0.194912 -0.975761
0.00751085 -0.012932 -0.999888
-0.0263459 -0.0167065 -0.999513
0.11765 0.194915 -0.973738
-0.00848616 -0.0407878 -0.999132
0.152084 0.186559 -0.970601
-0.0362045 -0.0934273 -0.994968
0.0988413 0.184115 -0.977922
0.152831 0.35325 -0.922961
0.171829 0.338108 -0.925288
0.143269 0.428091 -0.892307
0.213345 0.69269 -0.688959
0.0906645 0.260256 -0.961274
0.243154 0.363904 -0.899139
0.0484888 0.234705 -0.970856
0.0235154 0.0418355 -0.998848
0.313584 0.802911 -0.506951
0.3425 0.921388 -0.183681
0.0642823 0.435442 -0.897919
0.125032 0.661563 -0.739392
0.043806 0.281472 -0.958569
0.0388354 0.363818 -0.93066
0.050551 0.574747 -0.816769
0.0864591 0.726269 -0.681952
0.181002 0.81119 -0.556065
0.189302 0.934955 -0.30004
0.233824 0.477636 -0.846871
0.324105 0.67916 -0.658557
0.0793789 0.0978115 -0.992034
0.0502651 0.0105134 -0.998681
0.225478 0.166254 -0.959958
-0.0119889 -0.111583 -0.993683
0.335994 0.481362 -0.809567
0.410966 0.131595 -0.902103
0.564484 0.15607 -0.810555
0.744686 0.20386 -0.635518
0.69501 0.130615 -0.707037
0.810017 0.110877 -0.575828
0.840619 0.19756 -0.504312
0.483451 0.184704 -0.855663
0.703667 0.293274 -0.647181
0.351933 0.158819 -0.922453
0.26737 0.153806 -0.95124
0.298745 0.194913 -0.934217
0.512488 0.309838 -0.800847
0.640359 0.455442 -0.618476
0.692495 0.395399 -0.603415
0.77974 0.262757 -0.5683
0.896642 0.325014 -0.300664
0.556251 0.478065 -0.679734
0.930015 0.236479 -0.281337
0.936224 0.288941 -0.199996
0.935536 0.0856993 -0.342678
0.975458 0.0247859 -0.218786
0.938454 -0.0331193 -0.343813
0.826108 0.448649 -0.340968
0.882644 0.4683 -0.0404326
0.90627 0.396156 0.147428
0.708665 0.043634 -0.704195
0.678101 0.0123554 -0.734865
0.0122639 0.0198851 0.999727
-0.0801892 -0.103852 0.991355
-0.11126 -0.235624 -0.965455
-0.123406 -0.425508 -0.896501
-0.650166 -0.529611 0.544791
-0.644897 -0.460215 0.610172
-0.59238 -0.644209 -0.483818
-0.0449381 -0.0633296 0.99698
0.00134604 -0.0182405 0.999833
0.0367909 0.127284 0.991184
0.119148 0.230145 0.965835
0.183472 0.34974 0.918706
0.196459 0.36302 0.910835
0.169765 0.270641 0.947593
0.114696 0.279616 0.953237
0.0729455 0.212573 0.974419
0.159849 0.342853 0.925689
0.166294 0.441553 0.88169
0.103207 0.381888 0.918428
0.204499 0.465382 0.861162
0.240173 0.485371 0.840674
0.239807 0.591418 0.769881
0.264684 0.462799 0.846026
0.325734 0.559431 0.76219
0.398436 0.65015 0.646957
0.309256 0.46697 0.828432
0.272442 0.388734 0.880149
0.426033 0.73883 0.522136
0.409443 0.792013 0.452848
0.45216 0.872153 0.186819
0.440707 0.889809 -0.118398
0.170116 0.523127 0.835104
0.201201 0.653166 0.729994
0.231774 0.622162 0.747793
0.257842 0.720972 0.643209
0.0745317 0.21547 0.973662
0.0311234 0.111168 0.993314
0.0367708 0.120989 0.991973
0.060987 0.26257 0.962984
-0.00626666 0.0368753 0.9993
-0.00431561 0.0633256 0.997984
0.0394731 0.192744 0.980455
0.0595193 0.32102 0.9452
0.0223058 0.39109 0.920082
0.0820691 0.46557 0.881198
-0.0169408 -0.0187163 0.999681
-0.0453613 -0.131534 0.990273
-0.024827 -0.0360878 0.99904
-0.0344179 -0.112221 0.993087
-0.0685332 -0.148806 0.986489
-0.104627 -0.2509 0.962342
-0.0831402 -0.273464 0.958282
-0.13114 -0.384023 0.913963
-0.0884079 -0.392496 0.915495
-0.124875 -0.520969 0.844392
-0.0457745 -0.584404 0.810171
-0.0536143 -0.269883 0.961399
-0.148506 -0.481892 0.863554
-0.187611 -0.453666 0.8712
-0.26211 -0.560605 0.785507
-0.177646 -0.572953 0.800105
-0.0440236 -0.237096 0.970488
-0.136442 -0.358554 0.923484
-0.15173 -0.334794 0.929995
-0.100905 -0.227803 0.968465
-0.0567967 -0.136402 0.989024
-0.178208 -0.585828 0.7906
-0.179279 -0.672295 0.718247
-0.191353 -0.768061 0.611119
-0.253546 -0.841755 0.476616
-0.122545 -0.778748 0.615251
-0.0793308 -0.865683 0.494266
-0.294183 -0.788675 0.53986
-0.380762 -0.737488 0.557792
0.398487 0.855344 0.33105
0.375144 0.850569 0.36851
0.316802 0.918571 0.236355
0.298121 0.57925 0.758679
0.336996 0.669586 0.661883
0.307683 0.709353 0.634153
0.335809 0.780261 0.52766
0.364098 0.741554 0.563498
0.343624 0.936679 0.0674878
0.308134 0.946251 -0.0983012
0.238116 0.969222 -0.062526
-0.211502 -0.662819 0.718288
-0.240602 -0.654717 0.716559
-0.2741 -0.711566 0.646949
0.482137 0.82749 -0.287757
-0.129136 -0.931359 0.340433
-0.0525376 -0.988264 0.14344
-0.0250401 -0.936707 0.349219
0.096256 -0.979887 0.174802
0.209579 -0.974413 -0.0812137
0.342384 -0.936986 -0.0695044
0.47241 -0.872864 0.122218
0.568115 -0.774 0.279589
0.345095 0.0580447 -0.936771
0.463166 0.0636501 -0.883983
0.531616 0.0911252 -0.842069
0.101336 0.875253 -0.472931
-0.454933 -0.553801 0.697381
-0.403387 -0.325149 -0.855311
-0.376831 -0.346033 -0.85922
-0.227977 -0.208561 -0.951067
-0.292595 -0.24419 -0.924532
-0.1816 -0.132787 -0.974366
-0.205628 -0.130748 -0.969857
-0.128675 -0.0966484 -0.986966
-0.0468331 -0.0302222 -0.998445
0.076331 0.0973732 -0.992316
0.440696 0.258599 0.859601
-0.235072 -0.0892131 0.967875
-0.081398 -0.0502234 0.995415
-0.106078 -0.0354975 0.993724
0.0115549 0.0232075 0.999664
-0.0245951 -0.0216114 0.999464
0.000962411 0.0047681 0.999988
0.141671 0.0724039 0.987262
0.0654881 0.0372353 0.997158
0.226814 0.0843517 0.970278
0.248917 0.130757 0.959658
0.178925 0.0371362 0.983162
0.169921 0.0481908 0.984279
0.30267 0.0997597 0.94786
0.455648 0.090677 0.885529
0.287109 0.0588622 0.956088
0.398474 0.0803244 0.913655
0.142644 0.0241477 0.98948
0.108374 0.0101685 0.994058
0.0303059 0.00618169 0.999522
0.455141 0.202171 0.867164
-0.117432 -0.0433978 0.992132
-0.256595 -0.0715247 0.963869
-0.00846171 -0.00216884 0.999962
-0.00746233 -0.000942809 0.999972
0.397079 0.183268 0.8993
0.480327 0.20716 0.852274
0.309376 0.137113 0.941003
0.386413 0.127841 0.913423
0.419435 0.0538579 0.906186
0.331321 0.0311297 0.943004
0.550148 0.0768749 0.831521
0.618044 0.0585418 0.783961
0.672135 0.0237805 0.740047
0.562189 0.0421628 0.825934
0.418192 0.0227449 0.908074
0.345962 0.000488016 0.938248
0.431686 -0.0254054 0.901666
0.361297 -0.0272896 0.932051
0.178951 0.00111291 0.983857
0.090044 -0.00279369 0.995934
0.661957 0.0961888 0.743344
0.736978 0.139018 0.661467
0.782465 0.201909 0.589052
0.756608 0.11448 0.643769
0.821586 0.0835492 0.563929
0.816731 0.053512 0.574532
0.880708 0.119626 0.458304
0.922707 0.155672 0.352672
0.891432 0.205704 0.403776
0.941399 0.262553 0.211741
0.534212 -0.0951878 0.839974
0.70919 -0.0784016 0.700645
0.675559 -0.114287 0.728394
0.658799 -0.148889 0.737438
0.542287 -0.126004 0.830691
0.444801 -0.100251 0.890001
0.894824 0.30672 0.324366
0.743296 0.210992 0.634817
0.803896 0.27138 0.529249
0.401919 -0.0845156 0.911767
0.235539 -0.0435108 0.97089
0.107506 -0.0307069 0.99373
-0.0209666 0.00564257 0.999764
0.0535673 -0.0203863 0.998356
-0.116372 0.0202161 0.993
0.0462022 -0.00726011 0.998906
-0.307894 0.0717416 0.948712
0.1501 -0.0412873 0.987808
0.202616 -0.0800919 0.975977
0.280037 -0.0939876 0.955377
-0.260605 -0.0582114 0.963689
-0.151894 -0.0124268 0.988319
-0.183678 0.042271 0.982077
-0.842585 -0.0646886 -0.534665
-0.757336 -0.0569364 -0.650538
-0.778342 -0.033351 -0.626954
-0.664939 -0.0650607 -0.744058
-0.60147 -0.0268921 -0.798443
-0.480661 0.00454289 -0.876895
-0.322686 -0.0100298 -0.946453
-0.107624 -0.00799982 -0.99416
-0.0723195 -0.00393219 -0.997374
0.193497 -0.0120251 -0.981027
-0.587311 -0.0456507 -0.808073
0.221599 -0.0460365 -0.974051
0.0817273 0.00104581 -0.996654
-0.338065 0.000582331 -0.941122
-0.193722 0.0132742 -0.980967
-0.609966 -0.0134067 -0.792315
-0.367316 -0.05027 -0.928737
0.296895 -0.0136656 -0.954812
0.346705 -0.0145681 -0.937861
-0.00262884 -0.657704 0.753272
0.0594944 -0.545779 0.835814
0.0953576 0.517381 0.850426
0.0514985 0.477148 0.877313
0.0686295 0.599702 0.797275
0.0787767 0.692273 0.717323
0.0921305 0.69619 0.711921
0.124587 0.737968 0.663236
0.135454 0.838923 0.527124
0.118767 0.888773 0.442693
0.176815 0.872938 0.454661
0.118027 0.949936 0.289293
0.21362 0.83314 0.510142
0.19711 0.936996 0.28842
0.251021 0.949615 0.18767
0.13933 0.979769 0.143667
0.124715 0.991982 -0.0204318
0.13885 0.978681 -0.151343
0.125623 0.932618 -0.338292
0.0805935 0.993439 -0.0811418
0.0609684 0.96986 -0.23591
0.0242247 0.95755 -0.287247
-0.0243242 0.997109 -0.0719907
0.227635 0.858012 0.460432
0.251081 0.921211 0.297201
0.194442 0.732906 0.651952
0.140355 0.696281 0.703913
0.115415 0.582606 0.804518
0.131236 0.522565 0.842438
0.166462 0.547779 0.819896
0.200558 0.651724 0.731458
0.13159 0.451381 0.882575
0.0940942 0.341821 0.935043
0.0600396 0.995927 0.0672675
0.0165379 0.993675 0.111069
-0.00463959 0.95718 0.289455
0.0550314 0.96281 0.264514
0.262674 0.805345 0.531434
0.295049 0.871745 0.391161
0.0453369 0.633645 0.772294
0.0321351 0.508603 0.860401
0.0207104 0.696654 0.717109
-0.0299455 0.674687 0.737497
0.00205383 0.808294 0.588775
-0.0180335 0.779165 0.626559
-0.0667698 0.842386 0.534722
-0.108565 0.84643 0.521315
-0.147025 0.924921 0.350578
-0.123627 0.708699 0.694594
-0.0228924 0.932873 0.359478
-0.0818193 0.977129 0.196278
-0.0694377 0.99706 0.0323959
-0.0915606 0.987125 -0.131153
-0.101573 0.94125 -0.322075
-0.104116 0.976741 0.18745
-0.149219 0.987121 0.0576644
-0.167862 0.983165 -0.0721756
-0.188097 0.959732 -0.208646
-0.210224 0.862372 -0.460565
-0.238813 0.971065 0.00131587
-0.313353 0.948582 0.0447341
-0.36609 0.920171 0.138797
-0.317108 0.88217 0.348164
-0.140193 0.985575 -0.0948
-0.163127 0.965145 0.204658
-0.197585 0.941154 0.274207
-0.225909 0.855981 0.465039
-0.171033 0.736249 0.65474
-0.168344 0.917843 -0.359479
-0.164853 0.632122 0.757129
0.0140831 0.444136 0.895848
0.0260597 0.374537 0.926846
0.0132595 0.232645 0.972471
-0.0289861 0.518493 0.85459
-0.00735711 0.379977 0.924967
0.000367935 0.241807 0.970324
0.010821 0.163816 0.986432
-0.0230595 0.326412 0.944946
-0.0485122 0.414888 0.908578
-0.0487033 0.567663 0.821819
-0.0420523 0.30099 0.9527
-0.0383177 0.564668 0.824428
-0.0600003 0.659823 0.749022
-0.0393576 0.745933 0.664857
-0.00369874 0.0119409 0.999922
-0.00320692 -0.083633 0.996491
0.0188679 -0.0684758 0.997474
-0.00778197 -0.215473 0.976479
0.00098797 -0.377266 0.926104
0.0131857 -0.167474 0.985788
0.0588046 -0.225741 0.972411
0.0591398 -0.449364 0.891389
-0.000938174 -0.337205 0.941431
-0.0135079 -0.388123 0.921509
-0.0230894 -0.249836 0.968013
-0.0266581 -0.286077 0.957836
-0.00827376 -0.0196852 0.999772
0.0176527 0.110183 0.993755
0.0117479 0.895904 0.444092
0.0840213 0.159263 0.983654
-0.39232 -0.569981 0.721946
-0.416671 -0.653415 0.632008
-0.461827 -0.683978 0.564703
-0.479099 -0.169191 -0.861301
-0.381485 -0.180299 -0.906621
0.399599 -0.0743402 0.913671
0.397589 -0.0572876 -0.915773
0.422441 0.879142 0.220576
0.441967 0.895551 0.0515182
0.415158 0.904879 -0.0940089
0.470659 0.881902 0.0270117
0.412845 0.869547 -0.271011
0.489782 0.855048 0.170311
0.549467 0.818773 0.166422
0.577478 0.809509 -0.105898
0.370974 0.829147 -0.418202
0.338379 0.877756 -0.33918
0.28808 0.86803 -0.404393
0.265132 0.800807 -0.537042
0.253591 0.728734 -0.636112
0.222534 0.6207 -0.751804
0.290207 0.712118 -0.639271
0.266143 0.931698 -0.247196
0.261015 0.940796 -0.216274
0.156579 0.553918 -0.817715
0.166302 0.640986 -0.74932
0.487036 0.862355 -0.138345
0.50532 0.843617 -0.181554
0.509327 0.786763 -0.348697
0.437525 0.858589 -0.267202
0.426039 0.806005 -0.410909
0.376251 0.727593 -0.573623
0.466243 0.776749 -0.423414
0.334758 0.618496 -0.710915
0.36628 0.616106 -0.697318
0.427326 0.643631 -0.634926
0.487344 0.665541 -0.565289
0.466975 0.619845 -0.630655
0.414667 0.514557 -0.750521
0.539803 0.690198 -0.481912
0.586078 0.742668 -0.32397
0.618112 0.772618 -0.144908
0.659835 0.747686 -0.0747195
0.588169 0.696274 -0.411412
0.603064 0.638105 -0.478682
0.575972 0.774802 -0.260651
0.672105 0.717073 -0.184609
0.631794 0.69221 -0.348829
0.704951 0.695075 -0.14112
0.716885 0.653337 -0.243368
0.649079 0.584115 -0.487346
0.746189 0.661483 -0.0751104
0.71676 0.696819 0.0264084
0.471553 0.729724 -0.495117
0.645185 0.524909 -0.555165
0.733999 0.535844 -0.417273
0.784532 0.588704 -0.194775
-0.0581466 -0.0111858 0.998245
0.975194 0.175665 -0.134676
0.975423 0.150502 -0.160935
0.967753 0.24427 -0.061533
0.397331 0.88935 0.226242
0.350125 0.927888 0.128205
0.366528 0.929866 -0.0317144
0.365195 0.91217 -0.185953
0.34463 0.889078 0.301282
0.590654 -0.0789036 -0.803058
0.70299 -0.0590775 -0.708742
0.832165 -0.0515775 -0.552124
0.897736 -0.108859 -0.426873
0.885726 -0.182961 -0.426632
0.732211 -0.201198 -0.650682
0.714192 -0.142492 -0.685293
0.933847 -0.139063 -0.329532
0.975289 -0.156022 -0.156421
0.983827 -0.176325 0.0315412
0.965472 -0.2184 0.142004
0.993401 -0.108433 -0.0373686
0.99273 -0.0546926 -0.107218
0.990191 -0.0842286 0.111478
0.941106 -0.043824 0.33526
0.927662 -0.107937 0.357481
0.926452 -0.117757 0.35752
0.947066 -0.187541 -0.260567
0.951252 -0.22673 -0.209078
0.968694 -0.247189 -0.0229918
0.936086 -0.29121 -0.197334
0.933512 -0.318732 -0.16421
0.933299 -0.344737 0.100543
0.919036 -0.36944 -0.137427
0.870351 -0.392775 -0.297013
0.863431 -0.443861 -0.239737
0.917107 -0.387682 0.0928302
0.880389 -0.452094 0.143269
0.866253 -0.384995 0.31841
0.921983 -0.312535 0.228626
0.887302 -0.244028 0.391337
0.824569 -0.340713 0.451664
0.817054 -0.244739 0.52204
0.899108 -0.295703 -0.322746
0.833045 -0.252915 -0.492005
0.838124 -0.30904 -0.449491
0.734455 -0.208589 -0.645807
0.614203 -0.195149 -0.764638
0.637904 -0.214413 -0.739666
0.452641 -0.11337 -0.884457
0.716226 -0.234092 0.657435
0.660706 -0.245912 0.709221
0.519472 -0.182557 0.834758
0.733881 -0.311349 0.603722
0.645926 -0.291859 0.705407
0.440854 -0.153198 0.884409
0.913795 -0.195016 -0.356298
0.836381 -0.177435 -0.518636
0.807306 -0.155584 -0.569255
0.869419 -0.120489 -0.479159
0.71222 -0.161926 -0.683024
0.950026 -0.272843 0.151682
0.500944 -0.235288 0.832883
0.664647 -0.173493 0.726736
0.862598 -0.216385 0.457276
0.927779 -0.233546 0.291002
0.853143 -0.180749 0.489364
0.776233 -0.140011 0.614703
-0.954166 0.184844 -0.23537
-0.957667 0.224563 -0.180126
-0.962525 0.267708 -0.0433463
-0.977778 0.194895 0.0772355
-0.0912581 0.383153 0.919166
-0.0839551 0.499759 0.862086
-0.0971336 0.4897 0.866464
-0.110337 0.387137 0.915397
-0.114813 0.389903 0.913671
-0.09984 0.222092 0.9699
-0.174846 0.499805 0.848307
-0.169865 0.441776 0.880897
-0.25407 0.517774 0.81692
-0.327376 0.693271 0.642028
-0.229354 0.396143 0.889082
-0.101551 0.169342 0.980312
-0.307669 0.489132 0.816143
-0.303339 0.424372 0.853167
-0.179432 0.251409 0.951103
-0.215123 0.625369 0.75009
