0.845043 -0.243143 0.476219
0.879218 -0.248934 0.406211
0.881698 -0.281963 0.378292
0.10961 -0.546211 0.830445
0.0166476 0.125337 0.991974
-0.841004 -0.0374473 0.539731
-0.88141 -0.0342583 0.471107
-0.255249 -0.055764 -0.965266
0.816118 0.544482 0.193625
0.810888 0.556316 0.181584
0.797128 0.580877 0.164829
0.78516 0.603408 0.139368
0.781842 0.620659 0.059204
0.7694 0.602426 0.212383
0.746555 0.631059 0.210764
0.736837 0.648746 0.190261
0.74388 0.657441 0.120058
0.782603 0.622487 -0.00644031
0.800521 0.594599 -0.0749531
0.762619 0.634663 -0.124959
0.75178 0.634369 -0.180006
0.716742 0.687654 -0.11581
0.730497 0.644923 -0.224607
0.724756 0.60699 -0.326024
0.75013 0.594349 -0.289922
0.754369 0.629465 -0.186281
0.813443 0.53866 0.219446
0.784609 0.555752 0.274823
0.796969 0.527062 0.295037
0.747148 0.583609 0.318072
0.721221 0.594549 0.355459
0.740356 0.565077 0.36409
0.758859 0.51959 0.392631
0.769255 0.62724 0.121723
0.721166 0.556785 0.412201
0.715719 0.557666 0.420422
0.689117 0.54455 0.478104
0.702863 0.590893 0.396017
0.679465 0.612455 0.404013
0.641416 0.597703 0.480974
0.713899 0.501017 0.489214
0.630815 0.604682 0.486243
0.6431 0.632134 0.432236
0.621394 0.652005 0.434464
0.666977 0.634661 0.390317
0.630135 0.591126 0.503488
0.612858 0.567948 0.549399
0.574392 0.522739 0.629935
0.559905 0.54098 0.627572
0.559828 0.570387 0.601041
0.582843 0.61068 0.536063
0.619685 0.548726 0.56115
0.623556 0.556247 0.549334
0.572471 0.631557 0.522889
0.628478 0.67458 0.387242
0.590657 0.699489 0.402293
0.652248 0.664769 0.364217
0.639435 0.704176 0.308641
0.587084 0.643643 0.490975
0.506434 0.550576 0.663619
0.538962 0.50618 0.673277
0.55516 0.477639 0.680924
0.576505 0.505931 0.64162
0.50191 0.49491 0.709331
0.463242 0.444661 0.766605
0.515364 0.512013 0.687199
0.505713 0.52046 0.688023
0.484556 0.514313 0.707593
0.455065 0.469293 0.756756
0.412956 0.428446 0.80368
0.524475 0.47234 0.708393
0.509203 0.434165 0.74311
0.46608 0.434268 0.770831
0.551328 0.442494 0.707275
0.549471 0.432155 0.715069
0.511921 0.395181 0.762738
0.546533 0.419035 0.725059
0.532388 0.568751 0.626965
0.516225 0.596049 0.61501
0.603769 0.590425 0.535595
0.459456 0.549435 0.697869
0.471253 0.558237 0.682856
0.449677 0.515866 0.729159
0.436875 0.479542 0.761038
0.406588 0.46734 0.785034
0.456846 0.547448 0.701137
0.408485 0.50837 0.75809
0.393347 0.484365 0.781453
0.370701 0.431978 0.822177
0.337929 0.393032 0.855178
0.362709 0.44487 0.818861
0.309702 0.347595 0.885021
0.29942 0.364894 0.88159
0.312197 0.347198 0.8843
0.290149 0.339922 0.894576
0.263446 0.281921 0.92256
0.253898 0.310357 0.916086
0.251383 0.258547 0.932716
0.28153 0.312852 0.907119
0.34528 0.374247 0.860651
0.368992 0.437093 0.82024
0.52222 0.635509 0.568695
0.396854 0.415014 0.818701
0.39807 0.404772 0.823225
0.413393 0.414161 0.810911
0.68962 0.624596 0.366476
0.692087 0.630685 0.351073
0.716033 0.637711 0.283937
0.728316 0.61858 0.294813
0.720028 0.659559 0.215733
0.714771 0.676727 0.176474
0.694038 0.697768 0.177286
0.694714 0.662019 0.281253
0.662505 0.653491 0.366109
0.757776 0.652186 -0.0206983
0.727023 0.686608 0.0026629
0.729757 0.680491 -0.0662277
0.714222 0.699082 0.0342214
0.696764 0.656898 -0.288107
0.683124 0.663373 -0.305416
0.650694 0.647818 -0.396143
0.650725 0.597489 -0.468577
0.635238 0.56063 -0.531193
0.634964 0.512075 -0.578446
0.697507 0.589059 -0.408037
0.658876 0.53674 -0.52706
0.180106 0.213706 0.960152
0.188482 0.163294 0.968406
0.156265 0.180654 0.971054
0.199104 0.208413 0.95756
0.156265 0.180654 0.971054
0.222157 0.223032 0.949159
0.223764 0.255031 0.940685
0.244856 0.233294 0.941074
0.29381 0.300906 0.907266
0.276405 0.240892 0.930361
0.231226 0.202534 0.951585
0.196165 0.170894 0.965564
0.254593 0.183147 0.949547
0.685285 0.550077 0.477284
0.591549 0.713175 0.3761
0.568629 0.723905 0.39067
0.732777 0.67699 0.068728
0.734709 0.665516 0.131494
0.697607 0.575707 -0.426504
0.694234 0.563138 -0.448235
0.728506 0.567115 -0.384265
0.710407 0.602765 -0.363313
0.74631 0.564411 -0.352792
0.729232 0.584013 -0.35658
0.558065 0.720978 0.410796
0.619126 0.592359 -0.515551
0.601676 0.61209 -0.513159
0.589642 0.665741 -0.457286
0.571505 0.635602 -0.519029
0.551821 0.655792 -0.5152
0.532323 0.640149 -0.553933
0.485937 0.632548 -0.603115
0.505999 0.615517 -0.604238
0.483699 0.647524 -0.588853
0.571532 0.686982 -0.448783
0.61428 0.696467 -0.370937
0.630673 0.714303 -0.303353
0.572422 0.73233 -0.368816
0.574011 0.7517 -0.324744
0.565174 0.777391 -0.276118
0.559036 0.743504 -0.366987
0.545421 0.733991 -0.404689
0.509925 0.793616 -0.331889
0.517662 0.68429 -0.513589
0.633408 0.646283 -0.425573
0.600529 0.686337 -0.410253
0.478205 0.764559 -0.432169
0.464115 0.775186 -0.428583
0.457166 0.764597 -0.454303
0.494554 0.772865 -0.397612
0.471181 0.724169 -0.503556
0.457063 0.717649 -0.525427
0.468472 0.716154 -0.517357
0.414338 0.726624 -0.548035
0.41382 0.692092 -0.591406
0.41499 0.684277 -0.599623
0.424268 0.626827 -0.653517
0.438579 0.693708 -0.57133
0.472998 0.673956 -0.5675
0.450778 0.632827 -0.629547
0.483992 0.686557 -0.542579
0.446525 0.611874 -0.65286
0.435379 0.570154 -0.696684
0.391356 0.569916 -0.722521
0.4079 0.53069 -0.742958
0.359843 0.49147 -0.793077
0.513751 0.701133 -0.494442
0.52065 0.692127 -0.499884
0.552523 0.708476 -0.439068
0.614196 0.744376 -0.262044
0.571525 0.761118 -0.306691
0.54814 0.783452 -0.292824
0.556454 0.800171 -0.223798
0.535218 0.826662 -0.173702
0.507848 0.840809 -0.187435
0.105527 0.357883 0.927784
0.0947066 0.317583 0.943489
0.106461 0.328759 0.938394
0.0963022 0.275634 0.956427
0.0938877 0.238138 0.966683
0.113832 -0.3941 0.911991
0.510845 0.600646 0.61503
0.491334 0.60216 0.629281
0.533151 0.580661 0.615291
0.475243 0.571857 0.668673
0.456755 0.533345 0.711982
0.461606 0.531352 0.710341
0.506974 0.567134 0.649104
-0.859145 -0.161954 0.485429
-0.52297 -0.18957 -0.831002
-0.526517 -0.184689 -0.829861
0.0177317 0.00388685 -0.999835
0.124599 0.106206 0.986507
0.318685 0.889757 -0.32676
-0.0550285 0.138401 -0.988846
-0.0389605 0.067826 -0.996936
-0.0389843 0.104526 -0.993758
-0.0395157 0.0825495 -0.995803
-0.00739407 0.00750144 -0.999945
0.00519042 -0.0244197 -0.999688
0.0376618 -0.0602726 -0.997471
0.07679 -0.14009 -0.987157
0.00919619 -0.0095395 -0.999912
0.00555553 -0.0431242 -0.999054
0.0309779 -0.0538742 -0.998067
0.05273 -0.103903 -0.993189
0.0718268 -0.158112 -0.984805
0.00284097 0.0138868 -0.9999
-0.00168226 0.0378401 -0.999282
-0.0114727 0.018909 -0.999755
-0.042429 0.0578146 -0.997425
-0.0809643 0.122025 -0.989219
-0.0390088 0.127708 -0.991044
-0.0394076 0.0498653 -0.997978
-0.0366652 0.0879042 -0.995454
-0.0792677 0.157999 -0.984252
-0.0780293 0.145451 -0.986284
-0.130188 0.192393 -0.972644
-0.113762 0.228636 -0.966842
-0.0766448 0.133566 -0.988072
-0.157078 0.248526 -0.955804
0.000176954 0.0244178 -0.999702
0.0264923 -0.010088 -0.999598
-0.0277847 0.0207735 -0.999398
-0.112989 0.195442 -0.974185
-0.140645 0.297907 -0.944177
-0.127162 0.27179 -0.953918
-0.0953962 0.223083 -0.97012
-0.165665 0.30008 -0.939418
-0.176814 0.340317 -0.923537
-0.173193 0.332536 -0.927051
-0.212856 0.368918 -0.90476
-0.199596 0.392558 -0.897808
-0.20976 0.436031 -0.875144
-0.236664 0.402396 -0.884346
-0.258011 0.439699 -0.860288
-0.260443 0.476155 -0.839908
-0.227886 0.41495 -0.880843
-0.245136 0.429613 -0.869104
-0.269922 0.470613 -0.840039
-0.255146 0.482567 -0.837872
-0.212883 0.382173 -0.899235
-0.154456 0.253611 -0.954895
-0.184082 0.39481 -0.900133
-0.177022 0.366179 -0.913551
-0.145565 0.351231 -0.924904
-0.274065 0.507149 -0.817122
-0.300637 0.540854 -0.785554
-0.280546 0.57109 -0.77146
-0.33799 0.59124 -0.732256
-0.266692 0.603756 -0.751236
-0.258196 0.579989 -0.772624
-0.215209 0.454228 -0.864501
-0.110367 0.18872 -0.975809
-0.117761 0.198834 -0.972932
0.0580102 0.0833672 0.994829
0.0428793 0.0533732 0.997654
0.0562739 -0.979858 -0.191604
0.486389 0.222744 0.844873
0.0491259 -0.0383415 0.998056
-0.0110525 0.840839 0.541173
-0.0179063 0.805631 0.592148
0.50898 0.856759 -0.0830918
0.479622 0.8082 -0.341724
-0.363425 -0.264972 0.893147
-0.385878 -0.259888 0.885187
-0.388491 -0.292441 0.873815
-0.411114 -0.308945 0.857635
-0.471983 -0.330863 0.817167
-0.49506 -0.357435 0.791932
-0.390352 -0.268268 0.880714
-0.416981 -0.304792 0.856287
-0.457984 -0.32371 0.827927
-0.441497 -0.34397 0.828713
-0.455726 -0.349276 0.818731
-0.48093 -0.341948 0.807327
-0.519124 -0.377516 0.766807
-0.560885 -0.431307 0.70667
-0.499124 -0.39407 0.771741
-0.462522 -0.309242 0.830929
-0.494233 -0.341806 0.799314
-0.534562 -0.364612 0.762431
-0.577171 -0.373024 0.726448
-0.620827 -0.391692 0.679081
-0.528399 -0.360598 0.768612
-0.551235 -0.392386 0.736324
-0.57608 -0.421122 0.700563
-0.568516 -0.398794 0.719551
-0.641958 -0.425873 0.637591
-0.594345 -0.44204 0.67183
-0.632589 -0.471335 0.614552
-0.597171 -0.420853 0.682839
-0.584353 -0.369077 0.722713
-0.553441 -0.359521 0.751298
-0.135988 0.60065 0.787862
-0.170611 0.674783 0.718025
-0.142683 0.552542 0.821182
-0.104384 0.511114 0.853151
-0.150732 0.556625 0.816975
-0.156149 0.526075 0.83598
-0.121884 0.481137 0.868131
-0.118164 0.457193 0.881483
-0.0890448 0.515567 0.85221
-0.102013 0.541403 0.834551
-0.0797978 0.474007 0.876898
-0.083378 0.433494 0.897291
-0.0756966 0.415352 0.906506
-0.120068 0.564588 0.816593
-0.136881 0.608139 0.78194
0.0624356 0.0984049 -0.993186
0.0613623 0.11876 -0.991025
0.0438105 0.0959582 -0.994421
0.033312 0.0377994 -0.99873
0.019326 0.0270309 -0.999448
-0.0290963 -0.0367321 -0.998901
-0.0486188 -0.0785331 -0.995725
-0.816679 0.117202 0.565066
-0.313425 -0.471167 -0.824479
0.395669 -0.624811 0.673095
-0.280193 -0.22714 0.932684
-0.257507 -0.200571 0.945231
-0.198844 -0.157981 0.967214
0.0456035 -0.956119 -0.289406
-0.464577 -0.862574 -0.200333
-0.109862 -0.975637 -0.1899
-0.989997 0.0223381 -0.139307
0.0483284 -0.0765092 -0.995897
0.0328519 -0.040153 -0.998653
0.444457 0.151445 -0.882905
0.400661 0.12301 -0.907931
0.199749 -0.829319 -0.521853
0.19657 -0.84853 -0.491281
0.165005 -0.790265 -0.590131
0.152919 -0.789083 -0.594949
0.193516 -0.869386 -0.454664
0.208336 -0.896801 -0.390314
0.200475 -0.902379 -0.381473
0.160912 -0.889243 -0.428199
0.156665 -0.888015 -0.432302
0.142494 -0.844184 -0.516768
0.127327 -0.80987 -0.572623
0.139084 -0.92376 -0.356824
0.105914 -0.869538 -0.482375
0.105487 -0.864236 -0.491904
0.116969 -0.829731 -0.545769
0.111165 -0.843504 -0.525493
0.0977013 -0.87991 -0.464986
0.0982747 -0.835662 -0.540381
0.0715155 -0.827967 -0.556198
0.0382137 -0.848392 -0.527987
0.113811 -0.883927 -0.453565
0.102153 -0.926355 -0.362534
0.101082 -0.915496 -0.389421
0.145208 -0.828797 -0.54038
0.158894 -0.832177 -0.531257
0.126837 -0.91202 -0.390041
0.125774 -0.905519 -0.405236
0.0867543 -0.807524 -0.58342
0.0893293 -0.793144 -0.602448
0.066181 -0.771617 -0.632635
0.0766627 -0.712324 -0.697651
0.0973106 -0.688767 -0.718422
0.0984595 -0.727564 -0.678937
0.0691797 -0.685349 -0.724921
0.0740137 -0.636694 -0.767556
0.0582855 -0.628663 -0.775491
0.180596 -0.866811 -0.464784
0.0942937 -0.753907 -0.650179
0.0956181 -0.749352 -0.655232
0.123673 -0.777046 -0.617174
0.123903 -0.816917 -0.563289
0.0993585 -0.797623 -0.594916
0.0373734 -0.679671 -0.732565
0.134074 -0.933194 -0.333425
0.103602 -0.920817 -0.375981
0.0690429 -0.941755 -0.329137
0.0740035 -0.924696 -0.373446
0.0972999 -0.891898 -0.441645
0.19657 -0.84853 -0.491281
0.0720782 -0.858773 -0.50726
0.167913 -0.910098 -0.378849
0.112366 -0.937616 -0.329014
0.173328 -0.946121 -0.273519
0.0502782 -0.811681 -0.581933
0.0543037 -0.784598 -0.617623
0.0729571 -0.768759 -0.635363
-0.950363 0.289517 0.113974
-0.962435 0.248289 0.10987
0.356878 -0.303321 0.883535
-0.0833138 0.50579 -0.858624
-0.0703879 0.466809 -0.881553
-0.058274 0.424506 -0.903548
-0.129821 -0.156328 0.979136
-0.167018 -0.193761 0.966727
-0.184728 -0.252912 0.94969
0.371226 0.623499 -0.68807
0.36427 0.583122 -0.726138
0.337288 0.551382 -0.76303
0.347756 0.542241 -0.764879
0.314873 0.518786 -0.794806
0.644789 0.727379 -0.234876
0.627156 0.761999 -0.161347
0.615162 0.769474 -0.171712
0.585555 0.787496 -0.192291
0.620505 0.771628 -0.139869
0.612183 0.787651 -0.0695516
0.622071 0.782245 -0.0334846
0.650249 0.758568 -0.0418566
0.568384 0.806908 -0.160742
0.58447 0.807346 -0.0811599
0.656976 0.750173 -0.0749837
0.679228 0.728017 -0.0929563
0.705992 0.703738 -0.079558
0.722903 0.685964 -0.0828577
-0.532791 -0.0245221 -0.845891
-0.0536638 -0.0870063 0.994761
-0.0424701 -0.0609678 0.997236
-0.0716468 -0.122825 0.989839
-0.0323539 -0.0600868 0.997669
-0.00684786 -0.0089579 0.999936
0.125469 -0.507591 0.852414
0.12683 -0.559526 0.819051
0.12081 -0.513319 0.849652
0.134467 -0.498643 0.856314
0.861169 -0.393481 0.321809
0.867928 -0.414118 0.274238
0.848965 -0.471202 0.239221
-0.779096 -0.601094 -0.178034
-0.765327 0.630329 -0.130229
-0.771029 0.630804 -0.087179
-0.0586632 0.18499 0.980988
0.122412 -0.173121 0.977264
0.557782 -0.829923 0.010356
0.556422 -0.828477 0.0634002
0.545273 -0.836558 -0.0533616
0.0313202 0.045148 0.998489
-0.455529 0.792899 -0.404728
-0.885634 -0.195412 -0.421267
-0.863636 -0.195164 -0.464805
-0.876254 -0.225077 -0.426052
-0.879708 -0.228885 -0.416804
-0.915031 -0.237256 -0.326233
-0.891389 -0.260673 -0.370777
-0.896673 -0.25433 -0.362344
-0.869057 -0.25752 -0.422402
-0.906677 -0.258517 -0.333324
-0.928688 -0.275082 -0.248735
-0.902179 -0.290197 -0.319152
-0.871472 -0.23044 -0.432937
-0.84775 -0.227232 -0.479256
-0.815335 -0.228846 -0.531845
-0.781427 -0.248927 -0.572196
-0.845667 -0.224903 -0.48401
-0.822086 -0.213523 -0.527809
-0.801531 -0.208706 -0.560348
-0.927366 -0.212602 -0.307884
-0.91877 0.340902 -0.199117
0.0462248 -0.0734177 0.996229
-0.00358774 -0.0101028 0.999943
0.027109 -0.61547 0.787694
0.237167 -0.832339 0.500963
0.245271 -0.850094 0.466028
0.247329 -0.866156 0.434283
-0.580829 0.0854509 0.809528
0.363227 -0.206397 -0.908552
0.760463 0.297833 0.577054
-0.672946 0.156105 0.723032
-0.692074 0.157761 0.704376
-0.727136 0.195177 0.658164
-0.754732 0.171831 0.63313
-0.720369 0.207415 0.661851
-0.76152 0.22984 0.606021
-0.786059 0.192153 0.587528
-0.693059 0.158504 0.70324
-0.761419 0.158491 0.628587
-0.723623 0.164408 0.670328
-0.730509 0.119577 0.672352
-0.64268 0.142673 0.752733
-0.645505 0.120713 0.754156
-0.684592 0.120146 0.718957
-0.790767 0.21464 0.573251
0.485149 -0.312185 -0.816805
-0.705492 -0.106488 -0.700672
-0.122177 0.78031 0.613342
-0.133072 0.826301 0.547283
-0.104655 0.801488 0.588782
0.021782 -0.356976 -0.933859
-0.968198 0.0663047 0.24124
-0.166018 0.951552 0.258818
-0.57715 -0.344127 0.74059
-0.808015 -0.292968 0.511157
-0.846346 -0.297944 0.441506
-0.869816 -0.308139 0.385319
-0.891504 -0.341364 0.297812
-0.850499 -0.337661 0.403283
-0.860007 -0.299874 0.412872
-0.88639 -0.300172 0.352434
-0.892917 -0.325779 0.310754
-0.864738 -0.35466 0.35559
-0.875679 -0.351444 0.33117
-0.899803 -0.333943 0.280778
-0.902522 -0.373681 0.214049
-0.894115 -0.378092 0.240011
-0.534827 0.0112574 0.844887
-0.48206 -0.00164071 0.876137
0.713753 0.122231 -0.689649
0.719075 0.119886 -0.684513
0.697493 0.109207 -0.708221
-0.414923 0.691571 -0.591244
-0.39643 0.649431 -0.648909
-0.388732 0.676413 -0.625582
-0.384422 0.638199 -0.667025
-0.401453 0.644399 -0.650834
0.531452 0.276398 0.800726
0.570117 0.309762 0.76093
0.579133 0.298831 0.758489
0.586053 0.276484 0.761642
0.595711 0.268139 0.75712
0.636557 0.301414 0.70989
-0.141676 0.643279 -0.75241
0.323366 -0.821876 0.468993
-0.155151 0.605957 0.78022
-0.750169 0.309481 0.584353
-0.74446 0.315605 0.588364
-0.700624 0.292775 0.650698
-0.782822 0.302945 0.54352
-0.782185 0.355904 0.511389
-0.788867 0.299122 0.536856
-0.774009 0.292441 0.561595
-0.750189 0.269991 0.60359
-0.709281 0.294465 0.640477
0.560101 -0.112066 -0.820809
0.526377 -0.101335 -0.844191
0.545578 0.814388 0.197778
0.536501 0.829653 0.154411
0.333183 0.860227 0.386004
0.318198 0.845204 0.429395
0.337579 0.820842 0.460716
0.368779 0.791272 0.487741
0.987903 -0.072208 0.137233
0.967657 -0.09082 0.235355
0.0662474 0.274333 0.95935
0.0761137 0.313475 0.946541
0.0610881 0.301395 0.95154
0.082807 0.370682 0.925061
-0.224769 0.235978 0.945406
-0.217061 0.174103 0.960506
-0.0269507 0.288308 -0.957158
-0.0109516 0.276464 -0.960962
0.00181109 0.348566 -0.937282
-0.0225979 0.39889 -0.91672
-0.0335612 0.425276 -0.904441
-0.0295525 0.467758 -0.883362
-0.798114 -0.602491 0.00422427
-0.796629 -0.601736 0.0574139
-0.798063 -0.602215 -0.0208064
-0.807701 -0.581525 0.097197
-0.808318 -0.583537 0.0781406
-0.0368583 0.0696602 -0.99689
-0.642924 -0.259241 -0.720724
-0.64943 -0.270009 -0.71087
0.188486 -0.924609 -0.331016
-0.908498 -0.414308 -0.0545996
-0.252839 -0.802045 -0.541107
-0.294174 0.643858 -0.706335
-0.313717 0.672992 -0.669823
0.636845 -0.461861 -0.617344
0.610998 -0.466471 -0.639598
0.620664 -0.494277 -0.608659
0.610263 -0.491807 -0.621051
0.944105 -0.319998 0.0791644
0.932336 -0.350574 0.0885804
0.931062 -0.360381 0.0569968
0.921711 -0.382343 0.0652973
0.549182 0.573329 -0.608023
0.567502 0.562878 -0.600924
0.540741 0.537478 -0.647083
0.582091 0.535293 -0.612071
0.560823 0.507085 -0.654479
0.521414 0.493015 -0.696466
0.535202 0.471884 -0.700631
0.516644 0.429368 -0.740758
0.505232 0.418055 -0.754964
0.504347 0.446253 -0.739251
-0.856541 0.0699697 0.511313
-0.835162 0.0410602 0.54847
-0.825399 0.0501724 0.562316
-0.813841 0.0446653 0.579369
-0.818131 0.0501166 0.572843
-0.796067 0.0503343 0.603111
-0.78678 0.0287809 0.616562
-0.817508 0.00734245 0.575871
-0.794653 0.010019 0.606982
-0.775923 0.0123759 0.630706
-0.831581 0.017128 0.555139
0.926749 0.193442 0.322051
0.790976 -0.0518507 -0.609647
-0.677775 0.0655941 -0.732338
-0.703997 0.0590601 -0.707743
-0.887818 0.438019 -0.141136
-0.914762 -0.224853 -0.335637
-0.926345 -0.233523 -0.295552
-0.942085 -0.236779 -0.237509
-0.946318 -0.193773 -0.258717
-0.940169 -0.171266 -0.294533
-0.94789 -0.131707 -0.290101
-0.962211 -0.176401 -0.207442
-0.578573 -0.196722 0.791551
-0.585481 -0.172994 0.792013
-0.542357 -0.133927 0.829405
-0.614698 -0.15187 0.774004
-0.528032 -0.180165 0.829893
-0.498625 -0.172502 0.84948
-0.499164 -0.143513 0.85454
-0.468414 -0.201726 0.860172
-0.62653 0.227 0.745608
0.0208393 -0.00205793 -0.999781
0.0802678 0.00871311 -0.996735
0.114535 0.0144368 -0.993314
0.153788 0.0032452 -0.988099
-0.976201 -0.213163 -0.0399016
-0.977546 -0.210537 0.00883687
-0.971499 -0.223166 0.0799197
-0.978396 -0.206132 -0.0158129
-0.985758 -0.167711 0.0124102
-0.984505 -0.169379 0.0454046
-0.981584 -0.151861 0.115897
-0.988229 -0.151925 0.0179676
0.374888 -0.0449931 -0.925978
0.112616 -0.805239 0.582157
0.0962839 -0.839866 0.534186
0.0992342 -0.882612 0.45951
0.130795 -0.889138 0.43855
0.0663274 -0.846197 0.528726
0.0502574 -0.801766 0.595521
0.677935 0.325246 -0.659256
0.651551 0.281892 -0.704285
0.658414 0.300731 -0.689965
0.016484 -0.978637 -0.204932
-0.402669 0.837841 0.368618
0.238977 -0.243522 0.939993
0.221231 -0.211212 0.952075
0.231025 -0.213371 0.949263
0.278513 -0.230445 0.932376
0.283247 -0.273238 0.9193
0.320005 -0.316978 0.892817
0.27838 -0.265625 0.923011
0.218496 -0.17703 0.959646
0.319599 -0.299643 0.898927
0.324012 -0.315425 0.891921
0.195569 -0.150511 0.969071
0.133831 -0.152206 0.979246
0.175616 -0.137971 0.974743
0.163841 -0.166127 0.972398
0.331703 -0.338026 0.880745
0.273238 -0.268195 0.923803
0.263945 -0.252631 0.930865
0.321215 -0.28874 0.901915
0.377343 -0.317092 0.870095
0.306091 0.336936 -0.890383
0.862726 -0.505579 -0.00967098
-0.560187 0.294428 -0.774276
-0.459428 0.565102 -0.685263
-0.0706272 0.000237192 0.997503
-0.00543113 0.00436193 0.999976
-0.0301125 0.00450632 0.999536
-0.0642969 0.0152217 0.997815
-0.313911 -0.88654 0.339863
0.319299 0.425161 -0.846927
-0.896441 -0.347739 0.274719
-0.45099 0.422298 -0.786303
0.866852 -0.0193434 0.49819
0.187382 0.0611942 0.980379
-0.860991 0.0999951 -0.498693
-0.892488 0.151462 -0.424882
-0.848333 0.118193 -0.516103
0.484086 0.645534 0.590717
0.480773 0.627008 0.612959
0.492606 0.649604 0.579097
0.44959 0.63446 0.628752
0.440318 0.625202 0.644393
0.414656 0.59961 0.684492
0.436181 0.564361 0.700887
0.467192 0.590506 0.658054
0.457147 0.658701 0.597603
-0.265955 0.327435 0.906672
-0.238766 0.312712 0.919349
-0.261125 0.28376 0.922656
-0.239933 0.233877 0.942196
-0.201118 0.241115 0.949429
-0.195494 0.245772 0.949409
-0.164736 0.232807 0.958469
-0.2213 0.421304 -0.879505
-0.0410818 -0.729504 -0.682742
0.0942701 0.190993 0.977054
0.0641284 0.190414 0.979607
0.0401284 0.215609 0.975655
0.0903403 0.273965 0.957487
0.060184 0.225467 0.97239
-0.0163091 -0.00900761 -0.999826
0.76251 -0.222366 0.607563
0.968223 0.24444 0.0528457
0.274213 0.952787 -0.130398
0.331587 0.933125 -0.139027
0.0370803 0.0181685 0.999147
0.0708862 -0.00231701 -0.997482
0.507158 0.264628 -0.820222
-0.342127 -0.0265893 0.939277
-0.862121 0.443928 0.244283
-0.587689 0.762574 0.270377
-0.576048 0.755846 0.311234
-0.572269 0.754258 0.321873
-0.575477 0.713302 0.400032
-0.566244 0.67625 0.471225
-0.511527 0.702346 0.495025
0.54312 -0.364198 -0.756558
0.585357 -0.406994 -0.701223
0.606557 -0.386634 -0.694696
-0.782714 0.599921 -0.165692
-0.965541 0.176447 -0.191304
0.355794 -0.719441 -0.596502
0.319789 -0.760043 -0.565747
0.321669 -0.726049 -0.607768
0.307564 -0.687097 -0.658257
0.282964 -0.679531 -0.676882
0.273503 -0.636907 -0.720795
-0.577427 -0.491269 -0.652098
-0.585154 -0.517309 -0.624489
-0.639768 -0.52261 -0.563539
0.536142 0.244264 0.808014
0.901382 -0.150472 -0.406041
0.905604 -0.186152 -0.381088
0.917438 -0.194607 -0.347039
0.89138 -0.179171 -0.416341
0.919329 -0.208074 -0.333976
0.895062 -0.273632 -0.352121
0.873994 -0.169484 -0.455423
0.837376 -0.196532 -0.510076
-0.0288816 0.362459 -0.931552
0.0149261 0.369439 -0.929135
-0.0439652 0.311412 -0.949257
-0.163148 0.800135 -0.577207
-0.0545183 -0.201002 0.978073
-0.928044 0.294187 0.228446
-0.940138 0.306926 0.148112
-0.38799 0.471099 -0.792168
-0.374329 0.499765 -0.781097
-0.394366 0.497054 -0.772925
-0.383854 0.520473 -0.762734
-0.403637 0.571845 -0.714192
-0.348939 0.478691 -0.805665
-0.292724 0.455135 -0.840931
0.290002 -0.716601 0.634336
-0.902138 -0.339407 -0.266365
-0.321321 0.152946 -0.934538
-0.05356 0.0250973 -0.998249
-0.208696 -0.17125 0.96287
-0.214429 -0.204181 0.95516
0.134675 0.653678 -0.744693
0.157461 0.659283 -0.735222
0.159158 0.670748 -0.724407
0.169117 0.62333 -0.763452
-0.401261 -0.283647 0.870939
-0.37589 -0.275406 0.884793
0.0564314 0.462688 -0.884724
0.0313091 0.428284 -0.903102
0.0342586 0.416994 -0.908264
0.0752584 0.47636 -0.876024
0.13117 0.315162 0.939929
-0.405156 0.451783 0.794821
-0.42872 0.487091 0.760882
-0.437438 0.523527 0.731141
-0.56334 0.7288 -0.389228
-0.606233 0.725976 -0.324718
-0.61383 0.728094 -0.30511
-0.630436 0.73338 -0.254369
-0.51936 0.743895 -0.420576
-0.646939 0.700176 -0.302031
-0.631339 0.749139 -0.200501
-0.666799 0.679846 -0.305266
-0.62043 0.738606 -0.26368
-0.508866 -0.813512 0.28152
-0.519727 -0.78525 0.33655
-0.519653 -0.778042 0.353002
-0.513017 -0.758746 0.401395
-0.496994 -0.759581 0.419563
-0.496895 -0.721627 0.482027
-0.354391 -0.0886931 0.930882
-0.657221 0.747854 -0.093682
-0.649485 0.747233 -0.140756
-0.630689 0.751591 -0.193244
-0.685123 0.722195 -0.0950803
-0.633907 0.754391 -0.17046
-0.630839 0.742376 -0.225658
-0.646785 0.745366 -0.161553
0.91327 0.381441 0.142971
0.686492 -0.295931 -0.664193
0.664004 -0.278045 -0.694111
0.689927 -0.270507 -0.671436
0.698287 -0.325775 -0.63739
0.658864 -0.256738 -0.707095
-0.324877 -0.859435 -0.394749
-0.332343 -0.855238 -0.397638
-0.333133 -0.877125 -0.345939
-0.336308 -0.891004 -0.304974
-0.357111 -0.869998 -0.339965
0.804517 -0.455825 -0.380759
0.817782 -0.483964 -0.311466
0.816396 -0.449998 -0.361938
0.809676 -0.444198 -0.383553
0.795425 -0.414173 -0.442447
0.833558 -0.393677 -0.387556
0.851264 -0.420144 -0.31437
0.85385 -0.438055 -0.281156
0.860173 -0.410914 -0.30208
0.807815 -0.384268 -0.44696
0.784099 -0.427511 -0.449915
0.831071 -0.446016 -0.332252
0.789366 -0.363021 -0.495093
0.759264 -0.359572 -0.542426
0.721186 -0.344402 -0.601065
0.689874 -0.327575 -0.645576
0.768432 -0.374867 -0.51864
0.860308 -0.389017 -0.329449
0.83788 -0.396866 -0.374772
0.843516 -0.368551 -0.390705
0.824803 -0.347614 -0.445943
0.813717 -0.328958 -0.47922
0.791472 -0.339937 -0.507952
0.758366 -0.331103 -0.561473
0.858981 -0.354228 -0.369695
0.883753 -0.3558 -0.303954
0.874099 -0.334116 -0.352588
0.846417 -0.31522 -0.429202
0.840779 -0.322683 -0.434703
0.825749 -0.290725 -0.483341
0.772692 -0.307784 -0.555172
0.834607 -0.283635 -0.472211
0.82192 -0.285954 -0.492624
0.795778 -0.264428 -0.544808
0.773878 -0.290206 -0.562934
0.762183 -0.258668 -0.593438
0.772659 -0.321912 -0.547147
0.694948 -0.359428 -0.622783
0.830139 -0.485239 -0.274614
0.845442 -0.480157 -0.233829
0.880538 -0.425791 -0.208221
0.878912 -0.4481 -0.163464
0.847114 -0.303561 -0.436175
0.873411 -0.304682 -0.379899
0.867912 -0.297552 -0.397732
0.860652 -0.265716 -0.434365
0.888094 -0.284625 -0.360939
0.899574 -0.294717 -0.32235
0.837307 -0.279672 -0.469788
0.794195 -0.361236 -0.488634
0.729776 -0.268373 -0.628811
0.888973 -0.444614 -0.109754
0.894193 -0.432244 -0.116554
0.903172 -0.408886 -0.130739
0.893668 -0.413204 -0.174985
0.885898 -0.390496 -0.250397
0.870039 -0.403897 -0.282665
0.884771 -0.379054 -0.271105
0.0319694 0.494133 0.868798
0.0481397 0.465604 0.883683
0.0318226 0.490537 0.870839
0.0628125 -0.077001 -0.99505
0.0861517 -0.149433 -0.985012
0.693348 -0.0859599 0.715458
0.715061 -0.0871715 0.693606
0.731449 -0.0626415 0.679013
0.688708 -0.0354487 0.724171
0.720449 -0.0909849 0.687513
0.750992 -0.0825239 0.655135
0.849335 0.515361 -0.114163
0.848151 0.529064 -0.0270582
0.87191 0.488986 -0.0258163
0.839469 0.540902 0.052121
-0.344254 0.0734566 0.935998
-0.330586 0.0713298 0.941077
-0.374546 0.0938561 0.922446
-0.402137 0.0972839 0.910397
-0.401675 0.0895525 0.911393
-0.453889 0.0970542 0.885757
-0.285179 0.0803475 0.955101
-0.240112 0.0494628 0.969484
-0.227338 0.0455067 0.972752
-0.973474 -0.19552 0.118826
-0.964947 -0.204648 0.164307
-0.963389 -0.194595 0.184429
-0.966412 -0.193471 0.169164
-0.962125 -0.182084 0.202883
-0.947798 -0.186395 0.25872
-0.966287 -0.1599 0.201795
-0.957656 -0.137161 0.253146
-0.923091 -0.211484 0.321212
-0.912403 -0.192908 0.36098
-0.909696 -0.16222 0.382281
-0.916787 -0.153507 0.368696
-0.901796 -0.153143 0.404117
-0.901731 -0.145648 0.407024
-0.89045 -0.123433 0.438023
-0.900698 0.22387 -0.372325
0.0061185 -0.0144746 -0.999877
-0.0414057 -0.0758581 -0.996259
0.74116 0.233393 -0.629452
0.167073 0.126749 0.977763
0.207797 0.153358 0.966075
0.119396 0.08283 0.989386
0.0924321 0.0691689 0.993314
0.0415912 0.0313222 0.998644
0.111975 0.0901652 0.989612
-0.00106947 0.0271801 0.99963
-0.0444855 -0.0304775 0.998545
-0.0862219 -0.0509814 0.994971
0.146139 0.140881 0.979181
0.175075 0.146841 0.973543
0.197113 0.169507 0.965616
0.183282 0.144634 0.972363
0.149381 0.113344 0.982262
0.116173 0.0943874 0.988734
0.0943036 0.0804678 0.992286
0.249711 0.193794 0.94873
0.28249 0.210981 0.935781
0.309692 0.219779 0.925088
0.351418 0.256854 0.900295
0.331624 0.267235 0.904771
0.23063 0.203135 0.951602
0.284702 0.231851 0.930156
0.30878 0.2504 0.917581
0.330093 0.27273 0.903691
0.237032 0.2024 0.950184
0.185105 0.119694 0.975402
0.283776 0.209234 0.935785
0.30105 0.23035 0.925369
0.316497 0.250022 0.915051
0.304671 0.204275 0.930294
0.33246 0.231759 0.914198
0.150673 0.158459 0.975801
0.113136 -0.0799347 -0.990359
0.338049 -0.212341 -0.916861
0.528659 -0.483623 0.697588
0.498821 -0.431177 0.751841
0.468963 -0.410238 0.782163
-0.913364 -0.0412618 0.405048
-0.90058 -0.0360507 0.433192
-0.894114 -0.00139166 0.447838
0.746148 0.181282 0.640624
-0.343959 0.471137 -0.812232
0.277678 -0.18828 0.942043
0.272653 -0.17932 0.945254
0.340578 -0.17487 0.923811
0.261438 -0.159977 0.951871
0.20454 -0.137444 0.969161
0.35818 -0.217834 0.907885
0.376463 -0.221906 0.899463
0.395747 -0.232722 0.888383
-0.816183 -0.187399 -0.546559
0.998743 0.00040567 -0.0501146
0.0174635 0.00593107 -0.99983
0.284313 0.676285 0.679563
-0.784951 -0.00266554 -0.619552
-0.736187 -0.018602 -0.676523
-0.834757 -9.6342e-05 -0.550619
-0.842471 0.0318546 -0.537799
-0.849572 0.0499993 -0.525098
-0.881265 0.0599065 -0.468811
-0.892974 0.0394869 -0.448372
-0.834957 0.0478124 -0.548235
-0.835741 0.0930593 -0.541181
-0.863409 0.0833969 -0.497564
-0.87911 0.0793008 -0.469976
-0.912386 0.0867337 -0.400036
-0.934225 0.0819215 -0.34715
-0.928517 0.0508043 -0.367798
-0.860694 0.00378274 -0.509109
-0.882717 0.00738639 -0.469848
-0.930608 0.0141577 -0.365743
-0.00657019 -0.905578 -0.424129
0.245565 0.251946 -0.936067
-0.461434 0.785538 -0.412322
-0.455529 0.792899 -0.404728
-0.0125424 -0.0121323 -0.999848
-0.610449 -0.0434687 -0.790862
-0.621836 -0.0168017 -0.782967
-0.670808 -0.0290253 -0.741063
0.3153 0.930055 0.188638
0.315106 0.9221 0.224587
0.281349 0.934181 0.219429
0.291989 0.937 0.191766
0.26452 0.942693 0.203371
0.264232 0.937888 0.224827
-0.83168 0.383056 -0.401967
-0.845738 0.367699 -0.386684
-0.850635 0.403945 -0.336524
-0.828354 0.419452 -0.371336
-0.804609 0.428737 -0.410839
-0.800435 0.470454 -0.371453
-0.800834 0.469769 -0.371459
-0.823926 0.465544 -0.323132
-0.843552 0.474521 -0.251497
-0.849426 0.493736 -0.18628
-0.850893 0.444807 -0.279514
-0.805899 0.47352 -0.355394
-0.879535 0.390144 -0.272408
-0.885172 0.399646 -0.238231
-0.862489 0.377919 -0.336585
-0.876203 0.346286 -0.335193
-0.902468 0.340566 -0.263753
-0.904522 0.359425 -0.229465
-0.821834 0.521028 -0.230474
-0.816472 0.534519 -0.218319
-0.839684 0.523561 -0.144274
-0.839117 0.531224 -0.116979
-0.853494 0.50556 -0.126317
-0.844094 0.530636 -0.0770135
-0.799547 0.55651 -0.225878
-0.776989 0.558882 -0.289722
-0.792903 0.530913 -0.29906
-0.819648 0.485381 -0.304274
-0.763225 0.561124 -0.320354
-0.758869 0.584143 -0.287913
-0.752972 0.572238 -0.324925
-0.726503 0.574366 -0.377223
-0.69203 0.565987 -0.448055
-0.678295 0.579259 -0.452078
-0.702188 0.53652 -0.468058
-0.653075 0.532728 -0.538232
-0.649905 0.537893 -0.536931
-0.627163 0.498725 -0.598281
-0.873687 0.450694 -0.183155
-0.403686 0.110678 0.908178
0.629901 -0.705177 0.325498
0.600889 -0.710717 0.365806
-0.212628 -0.120947 0.969619
0.126044 0.0483065 0.990848
0.11219 0.0155415 0.993565
0.081415 -0.0091026 0.996639
0.052405 0.031481 0.99813
0.0263086 0.0076508 0.999625
0.0914056 0.0099323 0.995764
0.166084 0.0123456 0.986034
0.218362 0.0399397 0.97505
0.266809 0.058555 0.961969
0.276611 0.0564537 0.959322
0.289727 0.0561411 0.955461
0.268486 0.0421131 0.962363
0.337473 0.045114 0.940254
0.175382 0.0308128 0.984018
0.224129 0.0324691 0.974018
0.165351 0.0444043 0.985235
0.230586 0.0327785 0.9725
0.218883 0.0297932 0.975296
0.122971 0.0183843 0.99224
0.0205546 0.0258492 0.999455
-0.00681393 -0.000681033 0.999977
0.840134 -0.493296 -0.225464
-0.398494 0.891248 -0.216519
0.670205 -0.261251 0.694675
0.560601 -0.620903 0.54791
0.584462 -0.626599 0.515537
0.593309 -0.648593 0.476771
-0.203981 -0.894778 -0.397196
-0.230147 -0.866995 -0.441986
0.756169 0.161743 -0.634072
0.74775 0.161406 -0.644064
0.743722 0.177318 -0.644543
0.769309 0.226257 -0.597471
0.804887 0.182003 -0.564829
0.800399 0.153278 -0.579541
0.830841 0.178327 -0.527165
0.85814 0.17732 -0.481824
0.871161 0.188679 -0.453298
0.809181 0.232885 -0.539435
0.727624 0.221174 0.649342
0.948333 0.112193 -0.296777
0.256818 -0.318768 -0.912377
0.284883 -0.385041 -0.87783
0.340775 -0.430151 -0.835968
0.343538 -0.423943 -0.838006
0.314046 -0.466356 -0.826975
0.366544 -0.505996 -0.780778
-0.612456 -0.52287 -0.592878
-0.60211 -0.579271 -0.549462
-0.629389 -0.589696 -0.506091
0.759609 0.0470129 0.648678
0.905358 -0.281944 -0.317544
0.0940684 -0.0606289 -0.993718
-0.194486 0.0724625 -0.978225
-0.163433 0.100048 -0.981468
0.612116 0.457959 0.644661
0.837152 -0.481677 0.259161
0.116144 -0.558011 0.821666
0.122771 -0.607162 0.785036
0.105185 -0.554249 0.825678
0.0964202 -0.556407 0.825296
0.0755466 -0.530402 0.844374
0.259193 -0.810756 0.524875
0.521282 -0.107413 0.846598
0.509727 -0.111418 0.853091
0.453247 -0.104832 0.885199
0.411102 -0.097402 0.906371
0.369049 -0.0885593 0.925181
0.433198 -0.103063 0.895387
0.45223 -0.102286 0.886017
0.404959 -0.0754526 0.911216
0.339235 -0.0383561 0.93992
0.300768 -0.073577 0.950855
0.229363 -0.0574398 0.971645
0.274827 -0.0541194 0.959969
0.242738 -0.023398 0.96981
0.199324 -0.0414916 0.979055
0.149897 -0.0380773 0.987968
0.124378 -0.0203145 0.992027
0.123553 -0.00863285 0.9923
0.0675331 -0.0134942 0.997626
0.15256 -0.0450706 0.987266
0.150604 -0.0303015 0.98813
0.185579 -0.0458887 0.981557
0.00532286 0.00788027 0.999955
0.0540546 -0.00999802 0.998488
0.0256253 -0.0118469 0.999601
0.0492663 -0.00160745 0.998784
0.0407844 -0.0249891 0.998855
-0.045653 0.011838 0.998887
-0.0835016 0.00551597 0.996492
-0.0702308 0.00851067 0.997494
-0.0637207 0.0169457 0.997824
0.0813418 -0.0318282 0.996178
0.0298832 0.00964744 0.999507
-0.0500964 -0.00104663 0.998744
0.23109 -0.0630858 0.970885
0.293446 -0.0464024 0.954849
0.299394 -0.0422529 0.953194
0.369603 -0.0677946 0.926713
0.396223 -0.0487302 0.91686
0.182535 -0.0418002 0.98231
0.214665 -0.0465671 0.975577
0.342197 -0.098546 0.934446
0.328685 -0.0920004 0.939948
0.45409 -0.112837 0.883782
0.447576 -0.115223 0.886791
0.484254 -0.145713 0.862709
0.521262 -0.155087 0.839186
0.413253 -0.122911 0.902283
0.427111 -0.127492 0.895166
0.336185 -0.109294 0.935433
0.335996 -0.0943532 0.937125
0.315125 -0.0974704 0.944032
0.475217 -0.136523 0.869213
0.505888 -0.134183 0.852098
0.523569 -0.176036 0.833599
0.532424 -0.17139 0.828945
0.565554 -0.170444 0.806906
0.484673 -0.169952 0.858026
0.473351 -0.17513 0.863289
0.409079 -0.126154 0.903736
0.52625 -0.187485 0.829403
0.604313 -0.186646 0.774576
0.591416 -0.161707 0.789986
0.604675 -0.171761 0.777732
0.63782 -0.151023 0.755234
0.597049 -0.135199 0.79073
0.663276 -0.184264 0.725336
0.562676 -0.137578 0.815149
0.401623 -0.150364 0.903377
0.351539 -0.108765 0.929834
0.666323 -0.182435 0.723001
0.689781 -0.174719 0.70262
0.439879 -0.125262 0.889278
0.380974 -0.150334 0.912282
0.363737 -0.155793 0.918381
0.369778 -0.118073 0.921587
0.482435 -0.11689 -0.868097
0.831804 0.54781 0.0894812
-0.885659 0.280169 -0.370287
-0.903342 0.277185 -0.327324
-0.887833 0.263731 0.377092
0.464597 -0.723714 0.510282
-0.99632 0.0835641 -0.0190698
-0.0992801 -0.108081 -0.989172
0.162621 -0.630605 -0.758876
0.152607 -0.609891 -0.777653
0.128523 -0.637536 -0.759625
0.126186 -0.669677 -0.731854
0.114105 -0.626166 -0.771296
0.120717 -0.589493 -0.798703
0.13008 -0.631261 -0.764584
0.0920228 -0.629778 -0.771305
0.130553 -0.657947 -0.741661
0.103673 -0.69313 -0.713318
0.104286 -0.741538 -0.662756
0.156366 -0.730443 -0.664833
0.0617749 -0.580713 -0.811761
0.0989091 -0.541922 -0.834588
0.0927782 -0.491353 -0.866005
0.0840831 -0.433769 -0.897092
0.0794185 -0.413055 -0.907237
0.141832 -0.767306 -0.6254
0.161786 -0.755714 -0.634604
0.0875517 -0.542453 -0.835511
0.114068 -0.560134 -0.820511
0.103715 -0.509704 -0.854075
0.0781932 -0.154297 0.984925
0.0769816 -0.219246 0.972628
0.0753114 -0.262483 0.961993
0.0845226 -0.220903 0.971626
0.0956788 -0.249733 0.963576
0.0756112 -0.190949 0.978684
0.0544203 -0.13441 0.98943
0.0405475 -0.0983845 0.994322
-0.000125504 -0.0426232 0.999091
0.123369 -0.306593 0.943812
0.132787 -0.347861 0.928095
0.121594 -0.311846 0.94232
0.15032 -0.365086 0.918758
0.182644 -0.411196 0.893062
0.174672 -0.42727 0.887091
0.145379 -0.389782 0.90936
0.16132 -0.411852 0.896858
0.174572 -0.4759 0.862
0.123927 -0.387068 0.913685
0.128212 -0.391941 0.911013
0.176376 -0.359221 0.916434
0.136485 -0.425986 0.894376
0.141348 -0.44176 0.885928
0.17113 -0.476857 0.862161
0.140641 -0.442624 0.88561
0.136294 -0.486838 0.862794
0.139872 -0.445803 0.884136
0.11689 -0.447916 0.886402
0.118671 -0.462781 0.878494
0.0994871 -0.428918 0.897848
0.0984956 -0.374912 0.921813
0.0730606 -0.330925 0.940824
0.091911 -0.317819 0.943686
0.0519163 -0.261885 0.963702
0.0601206 -0.244538 0.967774
0.0671855 -0.178521 0.98164
0.0468699 -0.207606 0.977089
0.103532 -0.348985 0.931392
0.0605172 -0.246645 0.967214
0.0646174 -0.157171 0.985455
0.087968 -0.323534 0.942119
0.0956744 -0.269393 0.958266
0.0847473 -0.296627 0.951226
0.0681173 -0.251655 0.965417
0.108397 -0.322346 0.940395
0.0722262 -0.2257 0.971516
0.0454933 -0.188872 0.980947
0.0430195 -0.167034 0.985012
0.0282231 -0.103455 0.994234
0.0156718 -0.0692893 0.997474
0.0558464 -0.146412 0.987646
0.0395207 -0.122815 0.991642
0.0309834 -0.057967 0.997838
0.0296333 -0.0555915 0.998014
-0.00044481 -0.0527642 0.998607
-0.0274771 0.0124474 0.999545
-0.00603405 0.00229204 0.999979
-0.0158686 0.0280017 0.999482
-0.0409502 0.076341 0.99624
0.0837924 -0.34614 0.934434
0.131111 -0.316455 0.939503
0.000680638 -0.0377562 0.999287
-0.00251101 0.0110552 0.999936
0.00908952 -0.046282 0.998887
0.160682 -0.499162 0.851481
0.124273 -0.281625 0.951443
-0.781791 -0.283317 0.555458
0.187424 -0.111503 0.97593
-0.977856 0.128415 -0.165248
-0.965745 0.119992 -0.230084
-0.602989 -0.7951 -0.0649716
-0.585477 -0.803425 -0.10828
-0.441473 0.55386 0.705932
0.582558 0.750902 0.311083
-0.0453367 -0.9957 0.0807853
-0.284786 -0.938886 0.193364
-0.17177 0.772619 -0.611192
-0.423873 0.52014 -0.741475
-0.469849 0.508714 -0.721424
-0.470929 0.502166 -0.725297
-0.490089 0.503905 -0.711262
-0.503424 0.544092 -0.671214
-0.478446 -0.0365434 0.877356
-0.681973 0.364102 -0.634305
-0.677462 0.358934 -0.642037
0.690624 -0.250008 0.678627
0.727727 -0.242156 0.641697
0.671277 -0.225747 0.705992
0.345165 0.571635 -0.744375
0.297495 0.584759 -0.754687
0.339952 0.614881 -0.711586
0.358982 0.650044 -0.669758
0.391346 0.664606 -0.636512
0.323554 0.597913 -0.733357
0.293152 0.564276 -0.771787
0.354388 0.599963 -0.717254
0.367171 0.614138 -0.698584
-0.418525 -0.52133 -0.743675
-0.398337 0.478678 -0.782429
-0.431037 0.492971 -0.755769
-0.423501 0.521054 -0.741047
-0.543461 -0.605873 0.581006
-0.523019 -0.574298 0.629788
-0.531604 -0.606818 0.590906
-0.572389 -0.60776 0.550453
-0.530467 -0.59056 0.608148
-0.575571 -0.601855 0.553614
-0.807427 -0.351264 0.473999
-0.804831 -0.350493 0.47896
-0.817998 -0.377961 0.433618
-0.017762 -0.160711 -0.986842
-0.684196 0.604601 0.407839
-0.459743 -0.871465 0.170835
-0.163602 0.251156 0.954021
-0.588811 -0.700711 0.402872
-0.471178 -0.861188 -0.190647
-0.441432 -0.860948 -0.252796
-0.441215 -0.883867 -0.155266
-0.402309 -0.896469 -0.185719
-0.443857 -0.891278 -0.0928182
-0.441888 -0.894593 -0.0666193
-0.416913 -0.908377 0.0321775
-0.458379 -0.880422 -0.121435
-0.492185 -0.866576 -0.0824563
-0.492232 -0.869928 -0.0305371
-0.48465 -0.873912 0.0373209
-0.490685 -0.86976 0.0523965
-0.444403 -0.894033 -0.0566575
-0.436182 -0.899847 0.00443158
-0.427758 -0.902892 0.0425249
-0.40706 -0.913351 -0.00961077
-0.430216 -0.899025 -0.0816549
-0.416075 -0.894944 -0.161112
-0.40949 -0.910962 -0.0496515
-0.420813 -0.859105 -0.291298
-0.445091 -0.847252 -0.289928
-0.436102 -0.899419 0.0293459
-0.158049 0.866322 -0.473821
-0.0731675 0.150776 -0.985857
-0.104868 0.218782 -0.970122
-0.0735901 -0.316478 -0.945741
-0.0826051 -0.413604 -0.906702
-0.0849558 -0.425017 -0.90119
-0.844938 -0.295666 0.445716
-0.477649 -0.429423 0.766451
-0.466835 0.838522 0.280973
-0.45523 0.859177 0.233627
-0.432704 0.861252 0.266481
-0.470272 0.862551 0.186682
-0.469668 0.872721 0.133302
-0.451841 0.870078 0.196988
-0.435149 0.870015 0.231775
-0.432314 0.891495 0.135429
-0.454506 0.888909 0.0571444
-0.473973 0.878506 0.0598145
-0.459616 0.888095 0.0062862
-0.417712 0.894727 0.15805
-0.421106 0.901844 0.0966804
-0.416885 0.900013 0.127215
-0.480112 0.87029 0.109945
0.0262447 0.0787689 -0.996547
0.435086 0.379002 0.816736
-0.932513 0.114532 0.342495
-0.923655 0.107224 0.36792
0.485625 0.468566 0.73798
0.441416 0.47321 0.762381
0.444024 0.426634 0.787925
0.441069 0.403501 0.801652
0.390396 0.370482 0.842813
0.414223 0.394334 0.820317
0.485209 0.456466 0.745795
0.462597 0.436228 0.771822
0.490313 0.444289 0.7498
0.471001 0.491665 0.732409
0.471991 0.489148 0.733456
0.44346 0.461576 0.768304
0.510985 0.533408 0.67407
0.43943 0.468108 0.766666
0.447867 0.468878 0.761294
0.400839 0.426638 0.810745
0.380913 0.414217 0.826638
0.395393 0.43922 0.806691
0.343438 0.389389 0.85465
0.423667 0.467938 0.77559
0.312908 0.327552 0.891514
0.336112 0.311877 0.888685
0.438454 0.467961 0.767314
0.40911 0.477553 0.777543
0.38134 0.362689 0.850315
0.302819 0.324393 0.896142
0.279762 0.330656 0.901332
0.275459 0.279245 0.919861
0.220158 0.240833 0.945267
0.311136 0.33557 0.88915
0.271115 0.30265 0.913728
0.238255 0.244346 0.939962
0.287986 0.266598 0.919777
0.268695 0.245455 0.931426
0.197685 0.205779 0.958424
0.167884 0.172186 0.970653
0.290844 0.247791 0.924126
0.203879 0.197541 0.958859
0.187376 0.173839 0.966783
0.206781 0.157147 0.965685
0.245075 0.208629 0.946791
0.150797 0.169793 0.973874
0.149548 0.160428 0.975653
0.0973772 0.113556 0.988748
0.102736 0.0817202 0.991346
0.0734052 0.0814796 0.993968
0.0972228 0.0802303 0.992024
0.0221565 0.0404786 0.998935
0.013842 -0.0193548 0.999717
0.0885678 0.0952983 0.991501
0.077223 0.0860383 0.993295
0.145244 0.133785 0.980309
0.103148 0.100506 0.989575
0.127313 0.0948251 0.987319
0.157286 0.133714 0.978459
0.173088 0.146057 0.974016
0.221579 0.172289 0.959802
0.24671 0.1972 0.948813
0.289462 0.216629 0.932354
0.237154 0.16667 0.957068
0.133313 0.105512 0.985441
0.31965 0.247567 0.914623
0.0465004 0.0448096 0.997913
0.408913 0.481094 0.77546
0.441824 0.51939 0.731454
0.330838 0.302272 0.893968
0.338533 0.282563 0.897526
0.370249 0.361873 0.855549
0.448592 0.504845 0.737494
0.474128 0.50322 0.722476
0.500609 0.538964 0.677427
0.519863 0.565109 0.64062
0.070954 0.0748917 0.994664
0.15015 0.129804 0.980105
0.385579 0.436034 0.813144
0.385874 0.376786 0.842101
-0.725955 0.240082 -0.644477
-0.428516 0.682746 0.591804
-0.405288 0.673097 0.618613
-0.377155 0.642037 0.66749
-0.361154 0.658344 0.660418
-0.353072 0.652598 0.670415
-0.352307 0.613604 0.706661
-0.341355 0.590326 0.731432
-0.358861 0.613621 0.703341
-0.405692 0.714459 0.570055
-0.178846 -0.936755 -0.300839
-0.17212 -0.921644 -0.347774
-0.237149 -0.193348 0.952038
0.441186 -0.411886 0.797311
0.759879 0.102113 0.641995
0.730983 0.0987937 0.675207
0.688377 0.0736392 0.721605
-0.512846 0.611587 -0.602454
-0.818337 -0.339572 -0.463697
-0.836662 -0.383354 -0.391199
-0.863912 -0.369713 -0.342005
0.321009 0.898698 0.298822
0.330135 0.881702 0.337065
0.300726 0.878292 0.371707
0.294871 0.839152 0.457028
0.3438 0.861238 0.37426
0.268468 0.878316 0.395583
0.333039 0.844197 0.420019
0.307882 0.834615 0.456756
-0.40226 -0.211599 -0.890737
-0.395973 -0.175054 -0.901422
0.905722 0.408048 -0.114738
0.46551 -0.848872 0.250431
-0.461428 0.665573 0.586598
-0.513268 0.671296 0.534713
-0.517614 0.664152 0.539424
0.487042 -0.246248 0.837945
-0.652044 -0.756544 0.0497946
0.992772 0.000364953 0.120012
0.475715 0.317739 0.820206
0.501054 0.361314 0.786383
-0.957673 -0.286507 -0.0278481
0.29754 0.149388 -0.942949
0.222176 0.134846 -0.965637
-0.684262 0.355094 -0.636942
0.109094 0.257502 0.9601
0.144748 0.282636 0.948243
0.548253 0.0930876 -0.831115
0.555777 0.341755 0.757836
-0.425808 -0.153418 0.891712
0.709227 -0.640334 0.294904
-0.529831 0.45975 0.712678
-0.491883 -0.749465 0.443119
-0.685429 0.725734 0.0591309
-0.694903 0.709358 0.117989
-0.684639 0.696732 0.214091
-0.660436 0.719193 0.215838
-0.721381 0.65039 0.237911
0.713177 0.276575 -0.644115
0.677214 0.289328 -0.676514
0.277246 -0.28099 0.918792
0.296868 -0.34301 0.891187
0.340592 -0.306964 0.88869
0.252105 -0.256237 0.933159
-0.394215 -0.545488 -0.73962
0.479264 -0.259274 0.8385
0.449583 -0.239549 0.860518
0.41103 -0.235044 0.8808
0.424226 -0.225352 0.877068
0.443152 -0.244567 0.86244
0.470315 -0.262578 0.84253
0.375694 -0.200142 0.904874
0.327704 -0.189943 0.92549
0.343174 -0.187705 0.920325
0.39582 -0.205147 0.895121
0.349665 -0.155533 0.923874
0.422317 -0.214346 0.880741
0.352631 -0.130192 0.926662
0.400443 -0.207184 0.892592
0.429836 -0.203096 0.879769
0.471279 -0.236056 0.849808
0.540676 -0.265624 0.798194
0.591558 -0.279997 0.756082
0.551951 -0.258524 0.792789
0.478745 -0.273666 0.834212
0.462336 -0.216912 0.859764
0.508967 -0.244657 0.825285
0.516734 -0.237659 0.822498
-0.872554 -0.328233 0.361819
0.676208 -0.490917 -0.549311
0.680395 -0.472679 -0.560033
0.644225 -0.47075 -0.602801
0.600777 -0.461006 -0.6531
0.61994 -0.477807 -0.622395
0.620823 -0.431396 -0.654581
0.676403 -0.400526 -0.618108
0.617257 -0.414103 -0.668964
0.585987 -0.43396 -0.684323
0.226897 0.464575 0.855972
0.242125 0.454388 0.857267
0.212102 0.447373 0.868832
0.478781 0.790308 -0.382337
0.0889209 -0.462307 -0.88225
0.0553137 -0.869541 -0.490754
-0.52211 -0.527584 0.670117
-0.51944 -0.484111 0.704144
-0.525063 -0.457361 0.717725
-0.551603 -0.505915 0.663163
-0.579947 -0.530095 0.618596
-0.60293 -0.558266 0.569925
-0.635207 -0.586375 0.50267
-0.744739 -0.149052 0.650498
-0.75907 -0.174932 0.627065
-0.708386 -0.143358 0.691113
-0.68721 -0.147271 0.711375
-0.734506 -0.151711 0.661426
-0.689142 -0.121081 0.714438
-0.641281 -0.126617 0.756788
-0.591686 -0.13061 0.795518
-0.600829 -0.136565 0.787626
-0.635046 -0.143118 0.759101
-0.59399 -0.135998 0.792894
-0.54886 -0.127777 0.82609
-0.626661 -0.177806 0.758737
-0.636672 -0.184462 0.748747
-0.597539 -0.197712 0.777082
-0.549693 -0.164068 0.819097
-0.645784 -0.194409 0.738355
-0.680643 -0.203209 0.703869
-0.691017 -0.217077 0.689473
-0.578167 -0.172216 0.797537
-0.620846 -0.18699 0.761305
-0.633226 -0.222179 0.741391
-0.622472 -0.225188 0.749546
-0.5736 -0.17881 0.799381
-0.658044 -0.182583 0.730508
-0.517313 -0.166791 0.839385
-0.737378 -0.21535 0.640233
-0.542655 -0.142046 0.827858
-0.597999 -0.131724 0.790598
-0.654686 -0.134925 0.743762
-0.663474 -0.116756 0.739034
-0.699005 -0.112152 0.706268
-0.72634 -0.115391 0.67758
-0.663821 -0.239304 0.708573
-0.678138 -0.25941 0.68763
-0.69828 -0.204199 0.686082
-0.705687 -0.203393 0.678702
0.261228 -0.611321 -0.747025
0.237983 -0.568911 -0.787213
0.399398 -0.263609 0.878061
0.0388031 -0.00632141 -0.999227
-0.532635 -0.84535 -0.041031
-0.507177 -0.860728 0.0438018
-0.512987 -0.858278 -0.0142273
-0.487973 -0.871896 0.0409787
-0.478189 -0.870264 0.118222
-0.523643 -0.842671 0.12531
-0.451412 -0.891338 0.0417633
-0.429347 -0.903101 0.00833647
-0.423513 -0.904753 -0.0453691
-0.442992 -0.893732 0.0707174
-0.43202 -0.893027 0.125947
-0.398078 -0.906536 0.14045
-0.523299 -0.846713 0.0961019
-0.534119 -0.835421 0.129572
-0.538302 -0.824792 0.173057
-0.541746 -0.814484 0.20767
-0.523859 -0.816453 0.242849
-0.494027 -0.846265 0.199429
-0.951844 -0.306341 -0.0121883
0.0507325 0.0981909 -0.993874
0.299374 0.840869 -0.450904
0.4986 -0.797762 -0.339079
0.157195 0.722467 0.673299
0.96553 -0.238307 0.104696
0.96727 -0.243785 0.0704141
-0.00543067 -0.0343035 -0.999397
0.899706 -0.435447 -0.0302573
-0.380583 -0.214971 0.899413
-0.0143316 0.206464 -0.978349
-0.0321854 0.254364 -0.966573
0.467384 -0.123251 -0.875421
-0.804747 -0.150174 0.574308
-0.813382 -0.165279 0.557757
0.239918 0.238516 -0.941036
0.228333 0.270748 -0.935179
0.196286 0.18525 -0.962888
0.179666 0.177735 -0.967538
0.295964 0.272985 -0.91536
0.30635 0.331874 -0.892194
0.349904 0.344222 -0.871251
0.380848 0.400638 -0.833333
0.707111 -0.668472 -0.23052
-0.477789 0.451363 -0.753651
-0.488984 0.454239 -0.744689
-0.528938 0.47309 -0.704564
-0.534555 0.467386 -0.704132
-0.568166 0.48604 -0.664042
-0.593713 0.507129 -0.62476
-0.535211 0.423215 -0.731053
-0.580945 0.455535 -0.67453
-0.57833 0.43493 -0.690195
-0.590908 0.465552 -0.658854
-0.633953 0.475127 -0.610212
-0.560891 0.496058 -0.662818
0.142163 0.510394 -0.848108
0.129467 0.51139 -0.84954
0.134027 0.468748 -0.873105
0.131656 0.4239 -0.896089
-0.489068 0.0182407 0.872055
-0.484456 0.0117205 0.874737
-0.521858 0.0304951 0.852487
-0.538155 0.0108581 0.842776
-0.581828 -0.00110265 0.813311
-0.633572 0.0544446 0.771765
-0.602981 0.0326638 0.797086
0.92439 -0.151903 -0.349898
-0.643969 -0.214236 -0.734443
-0.696233 -0.233822 -0.678666
-0.3668 0.445219 -0.816846
-0.406824 0.458138 -0.790319
